10.00 10.00 10.00 10.00 10.00 10.00 10.00 10.00 10.00 10.00 10.00 10.00 10.00 10.00 10.00 10.00 10.00 10.00 10.00 10.00 10.00 10.00 10.00 10.00 10.00 10.00 10.00 10.00 10.00 10.00 10.00 10.00 10.00 10.00 10.00 10.00 10.00 10.00 10.00 10.00 10.00 10.00 10.00 10.00 10.00 10.00 10.00 10.00 10.00 10.00 10.00 10.00 10.00 10.00 10.00 10.00 10.00 10.00 10.00 10.00 10.00 10.00 10.00 10.00 10.00 10.00 10.00 10.00 10.00 10.00 10.00 10.00 10.00 10.00 10.00 10.00 10.00 10.00 10.00 10.00 10.00 10.00 10.00 10.00 10.00 10.00 10.00 10.00 10.00 10.00 10.00 10.00 10.00 10.00 10.00 10.00 10.00 10.00 10.00 10.00 10.00 10.00 10.00 10.00 10.00 10.00 10.00 10.00 10.00 10.00 10.00 10.00 10.00 10.00 10.00 10.00 10.00 10.00 10.00 10.00 10.00 10.00 10.00 10.00 10.00 10.00 10.00 10.00 10.00 10.00 10.00 10.00 10.00 10.00 10.00 10.00 10.00 10.00 10.00 10.00 10.00 10.00 10.00 10.00 10.00 10.00 10.00 10.00 10.00 10.00 10.00 10.00 10.00 10.00 10.00 10.00 10.00 10.00 10.00 10.00 10.00 10.00 10.00 10.00 10.00 10.00 10.00 10.00 10.00 10.00 10.00 10.00 10.00 10.00 10.00 10.00 10.00 10.00 10.00 10.00 10.00 10.00 10.00 10.00 10.00 10.00 10.00 10.00 10.00 10.00 10.00 10.00 10.00 10.00 10.00 10.00 10.00 10.00 10.00 10.00 10.00 10.00 10.00 10.00 10.00 10.00 10.00 10.00 10.00 10.00 10.00 10.00 10.00 10.00 10.00 10.00 10.00 10.00 10.00 10.00 10.00 10.00 10.00 10.00 10.00 10.00 10.00 10.00 10.00 10.00 10.00 10.00 10.00 10.00 10.00 10.00 10.00 10.00 10.00 10.00 10.00 10.00 10.00 10.00 10.00 10.00 10.00 10.00 10.00 10.00 10.00 10.00 10.00 10.00 10.00 10.00 10.00 10.00 10.00 10.00 10.00 10.00 10.00 10.00 10.00 10.00 10.00 10.00 10.00 10.00 10.00 10.00 10.00 10.00 10.00 10.00 10.00 10.00 10.00 10.00 10.00 10.00 10.00 10.00 10.00 10.00 10.00 10.00 10.00 10.00 10.00 10.00 10.00 10.00 10.00 10.00 10.00 10.00 10.00 10.00 10.00 10.00 10.00 10.00 10.00 10.00 10.00 10.00 10.00 10.00 10.00 10.00 10.00 10.00 10.00 10.00 10.00 10.00 10.00 9.94 9.85 9.77 9.69 9.61 9.54 9.47 9.40 9.34 9.29 9.25 9.23 9.24 9.27 9.34 9.43 9.55 9.70 9.87 10.00 10.00 10.00 10.00 10.00 10.00 10.00 10.00 10.00 10.00 10.00 10.00 10.00 10.00 10.00 10.00 9.95 9.83 9.71 9.59 9.50 9.41 9.35 9.31 9.29 9.27 9.26 9.23 9.18 9.13 9.06 8.98 8.90 8.82 8.74 8.66 8.59 8.52 8.46 8.41 8.37 8.34 8.32 8.31 8.31 8.32 8.32 8.33 8.35 8.36 8.36 8.36 8.35 8.34 8.32 8.32 8.32 8.33 8.35 8.38 8.42 8.46 8.51 8.53 8.53 8.50 8.47 8.43 8.40 8.38 8.36 8.34 8.32 8.30 8.28 8.25 8.23 8.21 8.18 8.15 8.13 8.09 8.05 8.04 8.04 8.09
10.00 10.00 10.00 10.00 10.00 10.00 10.00 10.00 10.00 10.00 10.00 10.00 10.00 10.00 10.00 10.00 10.00 10.00 10.00 10.00 10.00 10.00 10.00 10.00 10.00 10.00 10.00 10.00 10.00 10.00 10.00 10.00 10.00 10.00 10.00 10.00 10.00 10.00 10.00 10.00 10.00 10.00 10.00 10.00 10.00 10.00 10.00 10.00 10.00 10.00 10.00 10.00 10.00 10.00 10.00 10.00 10.00 10.00 10.00 10.00 10.00 10.00 10.00 10.00 10.00 10.00 10.00 10.00 10.00 10.00 10.00 10.00 10.00 10.00 10.00 10.00 10.00 10.00 10.00 10.00 10.00 10.00 10.00 10.00 10.00 10.00 10.00 10.00 10.00 10.00 10.00 10.00 10.00 10.00 10.00 10.00 10.00 10.00 10.00 10.00 10.00 10.00 10.00 10.00 10.00 10.00 10.00 10.00 10.00 10.00 10.00 10.00 10.00 10.00 10.00 10.00 10.00 10.00 10.00 10.00 10.00 10.00 10.00 10.00 10.00 10.00 10.00 10.00 10.00 10.00 10.00 10.00 10.00 10.00 10.00 10.00 10.00 10.00 10.00 10.00 10.00 10.00 10.00 10.00 10.00 10.00 10.00 10.00 10.00 10.00 10.00 10.00 10.00 10.00 10.00 10.00 10.00 10.00 10.00 10.00 10.00 10.00 10.00 10.00 10.00 10.00 10.00 10.00 10.00 10.00 10.00 10.00 10.00 10.00 10.00 10.00 10.00 10.00 10.00 10.00 10.00 10.00 10.00 10.00 10.00 10.00 10.00 10.00 10.00 10.00 10.00 10.00 10.00 10.00 10.00 10.00 10.00 10.00 10.00 10.00 10.00 10.00 10.00 10.00 10.00 10.00 10.00 10.00 10.00 10.00 10.00 10.00 10.00 10.00 10.00 10.00 10.00 10.00 10.00 10.00 10.00 10.00 10.00 10.00 10.00 10.00 10.00 10.00 10.00 10.00 10.00 10.00 10.00 10.00 10.00 10.00 10.00 10.00 10.00 10.00 10.00 10.00 10.00 10.00 10.00 10.00 10.00 10.00 10.00 10.00 10.00 10.00 10.00 10.00 10.00 10.00 10.00 10.00 10.00 10.00 10.00 10.00 10.00 10.00 10.00 10.00 10.00 10.00 10.00 10.00 10.00 10.00 10.00 10.00 10.00 10.00 10.00 10.00 10.00 10.00 10.00 10.00 10.00 10.00 10.00 10.00 10.00 10.00 10.00 10.00 10.00 10.00 10.00 10.00 10.00 10.00 10.00 10.00 10.00 9.95 9.90 9.86 9.84 9.85 9.89 9.95 10.00 10.00 10.00 10.00 10.00 10.00 10.00 10.00 10.00 10.00 9.95 9.87 9.80 9.72 9.64 9.56 9.48 9.40 9.33 9.25 9.19 9.13 9.09 9.07 9.07 9.09 9.15 9.24 9.37 9.53 9.72 9.92 10.00 10.00 10.00 10.00 10.00 10.00 10.00 10.00 10.00 10.00 10.00 10.00 10.00 10.00 10.00 10.00 9.90 9.77 9.66 9.55 9.45 9.38 9.32 9.28 9.26 9.25 9.23 9.20 9.15 9.08 9.01 8.92 8.82 8.72 8.62 8.53 8.44 8.36 8.28 8.23 8.18 8.16 8.15 8.15 8.15 8.17 8.19 8.20 8.22 8.22 8.22 8.21 8.18 8.15 8.11 8.08 8.06 8.05 8.06 8.08 8.12 8.16 8.22 8.25 8.25 8.21 8.19 8.14 8.11 8.09 8.08 8.07 8.06 8.04 8.03 8.01 7.99 7.97 7.95 7.92 7.89 7.87 7.84 7.82 7.82 7.95
10.00 10.00 10.00 10.00 10.00 10.00 10.00 10.00 10.00 10.00 10.00 10.00 10.00 10.00 10.00 10.00 10.00 10.00 10.00 10.00 10.00 10.00 10.00 10.00 10.00 10.00 10.00 10.00 10.00 10.00 10.00 10.00 10.00 10.00 10.00 10.00 10.00 10.00 10.00 10.00 10.00 10.00 10.00 10.00 10.00 10.00 10.00 10.00 10.00 10.00 10.00 10.00 10.00 10.00 10.00 10.00 10.00 10.00 10.00 10.00 10.00 10.00 10.00 10.00 10.00 10.00 10.00 10.00 10.00 10.00 10.00 10.00 10.00 10.00 10.00 10.00 10.00 10.00 10.00 10.00 10.00 10.00 10.00 10.00 10.00 10.00 10.00 10.00 10.00 10.00 10.00 10.00 10.00 10.00 10.00 10.00 10.00 10.00 10.00 10.00 10.00 10.00 10.00 10.00 10.00 10.00 10.00 10.00 10.00 10.00 10.00 10.00 10.00 10.00 10.00 10.00 10.00 10.00 10.00 10.00 10.00 10.00 10.00 10.00 10.00 10.00 10.00 10.00 10.00 10.00 10.00 10.00 10.00 10.00 10.00 10.00 10.00 10.00 10.00 10.00 10.00 10.00 10.00 10.00 10.00 10.00 10.00 10.00 10.00 10.00 10.00 10.00 10.00 10.00 10.00 10.00 10.00 10.00 10.00 10.00 10.00 10.00 10.00 10.00 10.00 10.00 10.00 10.00 10.00 10.00 10.00 10.00 10.00 10.00 10.00 10.00 10.00 10.00 10.00 10.00 10.00 10.00 10.00 10.00 10.00 10.00 10.00 10.00 10.00 10.00 10.00 10.00 10.00 10.00 10.00 10.00 10.00 10.00 10.00 10.00 10.00 10.00 10.00 10.00 10.00 10.00 10.00 10.00 10.00 10.00 10.00 10.00 10.00 10.00 10.00 10.00 10.00 10.00 10.00 10.00 10.00 10.00 10.00 10.00 10.00 10.00 10.00 10.00 10.00 10.00 10.00 10.00 10.00 10.00 10.00 10.00 10.00 10.00 10.00 10.00 10.00 10.00 10.00 10.00 10.00 10.00 10.00 10.00 10.00 10.00 10.00 10.00 10.00 10.00 10.00 10.00 10.00 10.00 10.00 10.00 10.00 10.00 10.00 10.00 10.00 10.00 10.00 10.00 10.00 10.00 10.00 10.00 10.00 10.00 10.00 10.00 10.00 10.00 10.00 10.00 10.00 10.00 10.00 10.00 10.00 10.00 10.00 10.00 10.00 10.00 10.00 10.00 10.00 10.00 10.00 10.00 10.00 10.00 9.93 9.86 9.79 9.74 9.71 9.70 9.71 9.75 9.80 9.85 9.90 9.94 9.96 9.95 9.93 9.89 9.84 9.77 9.71 9.64 9.57 9.50 9.43 9.35 9.28 9.20 9.12 9.05 8.98 8.93 8.89 8.88 8.89 8.93 9.00 9.12 9.27 9.46 9.68 9.90 10.00 10.00 10.00 10.00 10.00 10.00 10.00 10.00 10.00 10.00 10.00 10.00 10.00 10.00 10.00 9.93 9.81 9.69 9.57 9.47 9.38 9.31 9.25 9.21 9.19 9.17 9.15 9.11 9.06 8.99 8.90 8.81 8.70 8.59 8.48 8.37 8.27 8.18 8.09 8.03 7.98 7.95 7.94 7.94 7.96 7.98 8.00 8.02 8.04 8.04 8.04 8.01 7.98 7.93 7.88 7.83 7.78 7.75 7.74 7.75 7.77 7.81 7.89 7.92 7.92 7.86 7.84 7.77 7.75 7.73 7.73 7.72 7.72 7.71 7.70 7.68 7.66 7.67 7.61 7.59 7.56 7.54 7.52 7.51 7.50 7.46
10.00 10.00 10.00 10.00 10.00 10.00 10.00 10.00 10.00 10.00 10.00 10.00 10.00 10.00 10.00 10.00 10.00 10.00 10.00 10.00 10.00 10.00 10.00 10.00 10.00 10.00 10.00 10.00 10.00 10.00 10.00 10.00 10.00 10.00 10.00 10.00 10.00 10.00 10.00 10.00 10.00 10.00 10.00 10.00 10.00 10.00 10.00 10.00 10.00 10.00 10.00 10.00 10.00 10.00 10.00 10.00 10.00 10.00 10.00 10.00 10.00 10.00 10.00 10.00 10.00 10.00 10.00 10.00 10.00 10.00 10.00 10.00 10.00 10.00 10.00 10.00 10.00 10.00 10.00 10.00 10.00 10.00 10.00 10.00 10.00 10.00 10.00 10.00 10.00 10.00 10.00 10.00 10.00 10.00 10.00 10.00 10.00 10.00 10.00 10.00 10.00 10.00 10.00 10.00 10.00 10.00 10.00 10.00 10.00 10.00 10.00 10.00 10.00 10.00 10.00 10.00 10.00 10.00 10.00 10.00 10.00 10.00 10.00 10.00 10.00 10.00 10.00 10.00 10.00 10.00 10.00 10.00 10.00 10.00 10.00 10.00 10.00 10.00 10.00 10.00 10.00 10.00 10.00 10.00 10.00 10.00 10.00 10.00 10.00 10.00 10.00 10.00 10.00 10.00 10.00 10.00 10.00 10.00 10.00 10.00 10.00 10.00 10.00 10.00 10.00 10.00 10.00 10.00 10.00 10.00 10.00 10.00 10.00 10.00 10.00 10.00 10.00 10.00 10.00 10.00 10.00 10.00 10.00 10.00 10.00 10.00 10.00 10.00 10.00 10.00 10.00 10.00 10.00 10.00 10.00 10.00 10.00 10.00 10.00 10.00 10.00 10.00 10.00 10.00 10.00 10.00 10.00 10.00 10.00 10.00 10.00 10.00 10.00 10.00 10.00 10.00 10.00 10.00 10.00 10.00 10.00 10.00 10.00 10.00 10.00 10.00 10.00 10.00 10.00 10.00 10.00 10.00 10.00 10.00 10.00 10.00 10.00 10.00 10.00 10.00 10.00 10.00 10.00 10.00 10.00 10.00 10.00 10.00 10.00 10.00 10.00 10.00 10.00 10.00 10.00 10.00 10.00 10.00 10.00 10.00 10.00 10.00 10.00 10.00 10.00 10.00 10.00 10.00 10.00 10.00 10.00 10.00 10.00 10.00 10.00 10.00 10.00 10.00 10.00 10.00 10.00 10.00 10.00 10.00 10.00 10.00 10.00 10.00 10.00 10.00 10.00 10.00 10.00 10.00 10.00 10.00 9.95 9.90 9.84 9.77 9.71 9.66 9.62 9.60 9.60 9.61 9.64 9.67 9.70 9.72 9.73 9.72 9.69 9.65 9.61 9.55 9.49 9.43 9.37 9.30 9.23 9.16 9.09 9.01 8.94 8.87 8.80 8.75 8.72 8.70 8.72 8.76 8.85 8.98 9.15 9.35 9.58 9.82 10.00 10.00 10.00 10.00 10.00 10.00 10.00 10.00 10.00 10.00 10.00 10.00 10.00 10.00 9.92 9.81 9.69 9.58 9.47 9.37 9.28 9.20 9.14 9.10 9.06 9.03 9.00 8.96 8.90 8.82 8.73 8.64 8.53 8.42 8.31 8.19 8.08 7.98 7.89 7.82 7.76 7.73 7.72 7.72 7.73 7.75 7.77 7.79 7.81 7.81 7.81 7.79 7.75 7.69 7.63 7.56 7.50 7.45 7.42 7.40 7.40 7.43 7.54 7.59 7.59 7.49 7.47 7.36 7.34 7.31 7.32 7.32 7.33 7.32 7.31 7.29 7.27 7.24 7.21 7.19 7.17 7.14 7.11 7.11 7.10 7.07
10.00 10.00 10.00 10.00 10.00 10.00 10.00 10.00 10.00 10.00 10.00 10.00 10.00 10.00 10.00 10.00 10.00 10.00 10.00 10.00 10.00 10.00 10.00 10.00 10.00 10.00 10.00 10.00 10.00 10.00 10.00 10.00 10.00 10.00 10.00 10.00 10.00 10.00 10.00 10.00 10.00 10.00 10.00 10.00 10.00 10.00 10.00 10.00 10.00 10.00 10.00 10.00 10.00 10.00 10.00 10.00 10.00 10.00 10.00 10.00 10.00 10.00 10.00 10.00 10.00 10.00 10.00 10.00 10.00 10.00 10.00 10.00 10.00 10.00 10.00 10.00 10.00 10.00 10.00 10.00 10.00 10.00 10.00 10.00 10.00 10.00 10.00 10.00 10.00 10.00 10.00 10.00 10.00 10.00 10.00 10.00 10.00 10.00 10.00 10.00 10.00 10.00 10.00 10.00 10.00 10.00 10.00 10.00 10.00 10.00 10.00 10.00 10.00 10.00 10.00 10.00 10.00 10.00 10.00 10.00 10.00 10.00 10.00 10.00 10.00 10.00 10.00 10.00 10.00 10.00 10.00 10.00 10.00 10.00 10.00 10.00 10.00 10.00 10.00 10.00 10.00 10.00 10.00 10.00 10.00 10.00 10.00 10.00 10.00 10.00 10.00 10.00 10.00 10.00 10.00 10.00 10.00 10.00 10.00 10.00 10.00 10.00 10.00 10.00 10.00 10.00 10.00 10.00 10.00 10.00 10.00 10.00 10.00 10.00 10.00 10.00 10.00 10.00 10.00 10.00 10.00 10.00 10.00 10.00 10.00 10.00 10.00 10.00 10.00 10.00 10.00 10.00 10.00 10.00 10.00 10.00 10.00 10.00 10.00 10.00 10.00 10.00 10.00 10.00 10.00 10.00 10.00 10.00 10.00 10.00 10.00 10.00 10.00 10.00 10.00 10.00 10.00 10.00 10.00 10.00 10.00 10.00 10.00 10.00 10.00 10.00 10.00 10.00 10.00 10.00 10.00 10.00 10.00 10.00 10.00 10.00 10.00 10.00 10.00 10.00 10.00 10.00 10.00 10.00 10.00 10.00 10.00 10.00 10.00 10.00 10.00 10.00 10.00 10.00 10.00 10.00 10.00 10.00 10.00 10.00 10.00 10.00 10.00 10.00 10.00 10.00 10.00 10.00 10.00 10.00 10.00 10.00 10.00 10.00 10.00 10.00 10.00 10.00 10.00 10.00 10.00 10.00 10.00 10.00 10.00 10.00 10.00 10.00 9.98 9.96 9.94 9.92 9.91 9.89 9.86 9.84 9.81 9.77 9.74 9.69 9.65 9.61 9.57 9.55 9.54 9.54 9.55 9.56 9.57 9.57 9.56 9.54 9.51 9.47 9.42 9.37 9.31 9.25 9.20 9.14 9.07 9.01 8.94 8.87 8.80 8.73 8.67 8.62 8.58 8.57 8.59 8.63 8.72 8.85 9.02 9.23 9.46 9.70 9.93 10.00 10.00 10.00 10.00 10.00 10.00 10.00 10.00 10.00 10.00 10.00 10.00 9.89 9.78 9.67 9.57 9.46 9.35 9.24 9.15 9.06 8.99 8.93 8.88 8.84 8.80 8.74 8.67 8.59 8.51 8.42 8.32 8.21 8.10 7.99 7.88 7.78 7.68 7.61 7.55 7.51 7.48 7.48 7.48 7.49 7.51 7.53 7.55 7.56 7.56 7.54 7.50 7.45 7.38 7.30 7.23 7.16 7.11 7.08 7.06 7.03 7.16 7.30 7.31 7.15 7.12 6.95 6.93 6.89 6.91 6.92 6.93 6.92 6.90 6.88 6.86 6.82 6.80 6.77 6.74 6.71 6.68 6.66 6.64 6.64
10.00 10.00 10.00 10.00 10.00 10.00 10.00 10.00 10.00 10.00 10.00 10.00 10.00 10.00 10.00 10.00 10.00 10.00 10.00 10.00 10.00 10.00 10.00 10.00 10.00 10.00 10.00 10.00 10.00 10.00 10.00 10.00 10.00 10.00 10.00 10.00 10.00 10.00 10.00 10.00 10.00 10.00 10.00 10.00 10.00 10.00 10.00 10.00 10.00 10.00 10.00 10.00 10.00 10.00 10.00 10.00 10.00 10.00 10.00 10.00 10.00 10.00 10.00 10.00 10.00 10.00 10.00 10.00 10.00 10.00 10.00 10.00 10.00 10.00 10.00 10.00 10.00 10.00 10.00 10.00 10.00 10.00 10.00 10.00 10.00 10.00 10.00 10.00 10.00 10.00 10.00 10.00 10.00 10.00 10.00 10.00 10.00 10.00 10.00 10.00 10.00 10.00 10.00 10.00 10.00 10.00 10.00 10.00 10.00 10.00 10.00 10.00 10.00 10.00 10.00 10.00 10.00 10.00 10.00 10.00 10.00 10.00 10.00 10.00 10.00 10.00 10.00 10.00 10.00 10.00 10.00 10.00 10.00 10.00 10.00 10.00 10.00 10.00 10.00 10.00 10.00 10.00 10.00 10.00 10.00 10.00 10.00 10.00 10.00 10.00 10.00 10.00 10.00 10.00 10.00 10.00 10.00 10.00 10.00 10.00 10.00 10.00 10.00 10.00 10.00 10.00 10.00 10.00 10.00 10.00 10.00 10.00 10.00 10.00 10.00 10.00 10.00 10.00 10.00 10.00 10.00 10.00 10.00 10.00 10.00 10.00 10.00 10.00 10.00 10.00 10.00 10.00 10.00 10.00 10.00 10.00 10.00 10.00 10.00 10.00 10.00 10.00 10.00 10.00 10.00 10.00 10.00 10.00 10.00 10.00 10.00 10.00 10.00 10.00 10.00 10.00 10.00 10.00 10.00 10.00 10.00 10.00 10.00 10.00 10.00 10.00 10.00 10.00 10.00 10.00 10.00 10.00 10.00 10.00 10.00 10.00 10.00 10.00 10.00 10.00 10.00 10.00 10.00 10.00 10.00 10.00 10.00 10.00 10.00 10.00 10.00 10.00 10.00 10.00 10.00 10.00 10.00 10.00 10.00 10.00 10.00 10.00 10.00 10.00 10.00 10.00 10.00 10.00 10.00 10.00 10.00 10.00 10.00 10.00 10.00 10.00 10.00 10.00 10.00 10.00 10.00 10.00 10.00 10.00 10.00 10.00 9.95 9.90 9.85 9.81 9.78 9.76 9.73 9.70 9.68 9.67 9.65 9.64 9.63 9.62 9.60 9.57 9.55 9.53 9.52 9.51 9.50 9.50 9.49 9.48 9.45 9.42 9.38 9.34 9.29 9.23 9.18 9.12 9.07 9.01 8.96 8.90 8.83 8.77 8.70 8.64 8.58 8.53 8.50 8.49 8.50 8.55 8.63 8.76 8.92 9.12 9.35 9.57 9.78 9.95 10.00 10.00 10.00 10.00 10.00 10.00 10.00 10.00 10.00 9.92 9.83 9.74 9.64 9.54 9.44 9.33 9.22 9.11 9.00 8.90 8.81 8.74 8.67 8.60 8.54 8.48 8.40 8.33 8.25 8.17 8.08 7.99 7.89 7.79 7.68 7.58 7.49 7.41 7.34 7.30 7.27 7.25 7.24 7.25 7.26 7.28 7.30 7.32 7.32 7.31 7.28 7.22 7.15 7.07 6.99 6.91 6.84 6.79 6.74 6.70 6.62 7.02 6.98 6.80 6.83 6.55 6.54 6.49 6.50 6.52 6.52 6.53 6.51 6.49 6.46 6.43 6.39 6.36 6.33 6.29 6.26 6.23 6.20 6.18
10.00 10.00 10.00 10.00 10.00 10.00 10.00 10.00 10.00 10.00 10.00 10.00 10.00 10.00 10.00 10.00 10.00 10.00 10.00 10.00 10.00 10.00 10.00 10.00 10.00 10.00 10.00 10.00 10.00 10.00 10.00 10.00 10.00 10.00 10.00 10.00 10.00 10.00 10.00 10.00 10.00 10.00 10.00 10.00 10.00 10.00 10.00 10.00 10.00 10.00 10.00 10.00 10.00 10.00 10.00 10.00 10.00 10.00 10.00 10.00 10.00 10.00 10.00 10.00 10.00 10.00 10.00 10.00 10.00 10.00 10.00 10.00 10.00 10.00 10.00 10.00 10.00 10.00 10.00 10.00 10.00 10.00 10.00 10.00 10.00 10.00 10.00 10.00 10.00 10.00 10.00 10.00 10.00 10.00 10.00 10.00 10.00 10.00 10.00 10.00 10.00 10.00 10.00 10.00 10.00 10.00 10.00 10.00 10.00 10.00 10.00 10.00 10.00 10.00 10.00 10.00 10.00 10.00 10.00 10.00 10.00 10.00 10.00 10.00 10.00 10.00 10.00 10.00 10.00 10.00 10.00 10.00 10.00 10.00 10.00 10.00 10.00 10.00 10.00 10.00 10.00 10.00 10.00 10.00 10.00 10.00 10.00 10.00 10.00 10.00 10.00 10.00 10.00 10.00 10.00 10.00 10.00 10.00 10.00 10.00 10.00 10.00 10.00 10.00 10.00 10.00 10.00 10.00 10.00 10.00 10.00 10.00 10.00 10.00 10.00 10.00 10.00 10.00 10.00 10.00 10.00 10.00 10.00 10.00 10.00 10.00 10.00 10.00 10.00 10.00 10.00 10.00 10.00 10.00 10.00 10.00 10.00 10.00 10.00 10.00 10.00 10.00 10.00 10.00 10.00 10.00 10.00 10.00 10.00 10.00 10.00 10.00 10.00 10.00 10.00 10.00 10.00 10.00 10.00 10.00 10.00 10.00 10.00 10.00 10.00 10.00 10.00 10.00 10.00 10.00 10.00 10.00 10.00 10.00 10.00 10.00 10.00 10.00 10.00 10.00 10.00 10.00 10.00 10.00 10.00 10.00 10.00 10.00 10.00 10.00 10.00 10.00 10.00 10.00 10.00 10.00 10.00 10.00 10.00 10.00 10.00 10.00 10.00 10.00 10.00 10.00 10.00 10.00 10.00 10.00 10.00 10.00 10.00 10.00 10.00 10.00 10.00 10.00 10.00 10.00 10.00 10.00 10.00 10.00 9.94 9.88 9.83 9.78 9.73 9.69 9.65 9.61 9.57 9.54 9.52 9.51 9.51 9.51 9.53 9.54 9.55 9.55 9.54 9.53 9.52 9.51 9.50 9.48 9.46 9.43 9.39 9.35 9.30 9.25 9.20 9.14 9.09 9.03 8.98 8.93 8.88 8.83 8.78 8.72 8.66 8.60 8.54 8.50 8.47 8.45 8.47 8.51 8.59 8.71 8.87 9.05 9.26 9.47 9.66 9.81 9.92 9.99 10.00 10.00 10.00 9.98 9.94 9.89 9.83 9.76 9.68 9.60 9.51 9.41 9.31 9.20 9.08 8.96 8.84 8.73 8.62 8.52 8.43 8.35 8.27 8.20 8.13 8.06 7.99 7.92 7.85 7.77 7.69 7.60 7.50 7.41 7.32 7.23 7.17 7.11 7.07 7.05 7.04 7.03 7.04 7.06 7.08 7.10 7.11 7.10 7.07 7.03 6.96 6.87 6.79 6.70 6.61 6.54 6.47 6.41 6.33 5.94 5.87 6.59 5.83 6.14 6.16 6.09 6.12 6.16 6.17 6.18 6.17 6.15 6.12 6.09 6.06 6.02 5.97 5.93 5.89 5.85 5.82 5.79
10.00 10.00 10.00 10.00 10.00 10.00 10.00 10.00 10.00 10.00 10.00 10.00 10.00 10.00 10.00 10.00 10.00 10.00 10.00 10.00 10.00 10.00 10.00 10.00 10.00 10.00 10.00 10.00 10.00 10.00 10.00 10.00 10.00 10.00 10.00 10.00 10.00 10.00 10.00 10.00 10.00 10.00 10.00 10.00 10.00 10.00 10.00 10.00 10.00 10.00 10.00 10.00 10.00 10.00 10.00 10.00 10.00 10.00 10.00 10.00 10.00 10.00 10.00 10.00 10.00 10.00 10.00 10.00 10.00 10.00 10.00 10.00 10.00 10.00 10.00 10.00 10.00 10.00 10.00 10.00 10.00 10.00 10.00 10.00 10.00 10.00 10.00 10.00 10.00 10.00 10.00 10.00 10.00 10.00 10.00 10.00 10.00 10.00 10.00 10.00 10.00 10.00 10.00 10.00 10.00 10.00 10.00 10.00 10.00 10.00 10.00 10.00 10.00 10.00 10.00 10.00 10.00 10.00 10.00 10.00 10.00 10.00 10.00 10.00 10.00 10.00 10.00 10.00 10.00 10.00 10.00 10.00 10.00 10.00 10.00 10.00 10.00 10.00 10.00 10.00 10.00 10.00 10.00 10.00 10.00 10.00 10.00 10.00 10.00 10.00 10.00 10.00 10.00 10.00 10.00 10.00 10.00 10.00 10.00 10.00 10.00 10.00 10.00 10.00 10.00 10.00 10.00 10.00 10.00 10.00 10.00 10.00 10.00 10.00 10.00 10.00 10.00 10.00 10.00 10.00 10.00 10.00 10.00 10.00 10.00 10.00 10.00 10.00 10.00 10.00 10.00 10.00 10.00 10.00 10.00 10.00 10.00 10.00 10.00 10.00 10.00 10.00 10.00 10.00 10.00 10.00 10.00 10.00 10.00 10.00 10.00 10.00 10.00 10.00 10.00 10.00 10.00 10.00 10.00 10.00 10.00 10.00 10.00 10.00 10.00 10.00 10.00 10.00 10.00 10.00 10.00 10.00 10.00 10.00 10.00 10.00 10.00 10.00 10.00 10.00 10.00 10.00 10.00 10.00 10.00 10.00 10.00 10.00 10.00 10.00 10.00 10.00 10.00 10.00 10.00 10.00 10.00 10.00 10.00 10.00 10.00 10.00 10.00 10.00 10.00 10.00 10.00 10.00 10.00 10.00 10.00 10.00 10.00 10.00 10.00 10.00 10.00 10.00 10.00 10.00 10.00 10.00 9.93 9.87 9.82 9.77 9.73 9.69 9.64 9.60 9.55 9.50 9.45 9.41 9.38 9.37 9.38 9.40 9.43 9.47 9.50 9.53 9.54 9.55 9.55 9.54 9.52 9.50 9.46 9.42 9.37 9.31 9.26 9.20 9.14 9.09 9.03 8.98 8.94 8.89 8.85 8.81 8.76 8.71 8.66 8.60 8.55 8.51 8.48 8.47 8.49 8.53 8.61 8.72 8.86 9.03 9.22 9.40 9.57 9.71 9.80 9.85 9.86 9.86 9.84 9.80 9.77 9.72 9.67 9.61 9.55 9.47 9.39 9.30 9.19 9.08 8.95 8.82 8.69 8.56 8.44 8.32 8.21 8.11 8.02 7.94 7.86 7.80 7.74 7.69 7.63 7.57 7.50 7.43 7.34 7.26 7.17 7.09 7.02 6.97 6.92 6.89 6.87 6.86 6.87 6.88 6.90 6.93 6.94 6.94 6.92 6.88 6.81 6.72 6.63 6.53 6.43 6.34 6.26 6.18 6.10 5.81 5.74 5.75 5.67 5.87 5.93 5.80 5.83 5.87 5.90 5.91 5.91 5.89 5.87 5.83 5.80 5.75 5.70 5.65 5.60 5.55 5.51 5.48
10.00 10.00 10.00 10.00 10.00 10.00 10.00 10.00 10.00 10.00 10.00 10.00 10.00 10.00 10.00 10.00 10.00 10.00 10.00 10.00 10.00 10.00 10.00 10.00 10.00 10.00 10.00 10.00 10.00 10.00 10.00 10.00 10.00 10.00 10.00 10.00 10.00 10.00 10.00 10.00 10.00 10.00 10.00 10.00 10.00 10.00 10.00 10.00 10.00 10.00 10.00 10.00 10.00 10.00 10.00 10.00 10.00 10.00 10.00 10.00 10.00 10.00 10.00 10.00 10.00 10.00 10.00 10.00 10.00 10.00 10.00 10.00 10.00 10.00 10.00 10.00 10.00 10.00 10.00 10.00 10.00 10.00 10.00 10.00 10.00 10.00 10.00 10.00 10.00 10.00 10.00 10.00 10.00 10.00 10.00 10.00 10.00 10.00 10.00 10.00 10.00 10.00 10.00 10.00 10.00 10.00 10.00 10.00 10.00 10.00 10.00 10.00 10.00 10.00 10.00 10.00 10.00 10.00 10.00 10.00 10.00 10.00 10.00 10.00 10.00 10.00 10.00 10.00 10.00 10.00 10.00 10.00 10.00 10.00 10.00 10.00 10.00 10.00 10.00 10.00 10.00 10.00 10.00 10.00 10.00 10.00 10.00 10.00 10.00 10.00 10.00 10.00 10.00 10.00 10.00 10.00 10.00 10.00 10.00 10.00 10.00 10.00 10.00 10.00 10.00 10.00 10.00 10.00 10.00 10.00 10.00 10.00 10.00 10.00 10.00 10.00 10.00 10.00 10.00 10.00 10.00 10.00 10.00 10.00 10.00 10.00 10.00 10.00 10.00 10.00 10.00 10.00 10.00 10.00 10.00 10.00 10.00 10.00 10.00 10.00 10.00 10.00 10.00 10.00 10.00 10.00 10.00 10.00 10.00 10.00 10.00 10.00 10.00 10.00 10.00 10.00 10.00 10.00 10.00 10.00 10.00 10.00 10.00 10.00 10.00 10.00 10.00 10.00 10.00 10.00 10.00 10.00 10.00 10.00 10.00 10.00 10.00 10.00 10.00 10.00 10.00 10.00 10.00 10.00 10.00 10.00 10.00 10.00 10.00 10.00 10.00 10.00 10.00 10.00 10.00 10.00 10.00 10.00 10.00 10.00 10.00 10.00 10.00 10.00 10.00 10.00 10.00 10.00 10.00 10.00 10.00 10.00 10.00 10.00 10.00 10.00 10.00 10.00 10.00 10.00 9.97 9.88 9.82 9.77 9.73 9.70 9.67 9.63 9.59 9.54 9.49 9.43 9.37 9.32 9.28 9.27 9.28 9.30 9.34 9.39 9.45 9.50 9.54 9.57 9.58 9.58 9.56 9.53 9.48 9.43 9.37 9.30 9.24 9.17 9.11 9.06 9.01 8.96 8.92 8.89 8.85 8.82 8.78 8.74 8.70 8.65 8.60 8.57 8.55 8.54 8.55 8.60 8.67 8.78 8.91 9.06 9.22 9.38 9.52 9.63 9.70 9.73 9.74 9.72 9.69 9.65 9.62 9.58 9.53 9.48 9.42 9.35 9.27 9.18 9.08 8.96 8.83 8.70 8.55 8.41 8.27 8.14 8.02 7.91 7.81 7.72 7.65 7.59 7.54 7.50 7.46 7.41 7.36 7.30 7.23 7.15 7.07 7.00 6.93 6.86 6.82 6.78 6.75 6.75 6.75 6.77 6.79 6.81 6.83 6.84 6.82 6.78 6.71 6.62 6.52 6.42 6.31 6.21 6.11 6.02 5.93 5.72 5.28 5.26 5.61 5.60 5.63 5.58 5.62 5.66 5.70 5.72 5.72 5.71 5.69 5.65 5.61 5.56 5.51 5.45 5.39 5.33 5.29 5.26
10.00 10.00 10.00 10.00 10.00 10.00 10.00 10.00 10.00 10.00 10.00 10.00 10.00 10.00 10.00 10.00 10.00 10.00 10.00 10.00 10.00 10.00 10.00 10.00 10.00 10.00 10.00 10.00 10.00 10.00 10.00 10.00 10.00 10.00 10.00 10.00 10.00 10.00 10.00 10.00 10.00 10.00 10.00 10.00 10.00 10.00 10.00 10.00 10.00 10.00 10.00 10.00 10.00 10.00 10.00 10.00 10.00 10.00 10.00 10.00 10.00 10.00 10.00 10.00 10.00 10.00 10.00 10.00 10.00 10.00 10.00 10.00 10.00 10.00 10.00 10.00 10.00 10.00 10.00 10.00 10.00 10.00 10.00 10.00 10.00 10.00 10.00 10.00 10.00 10.00 10.00 10.00 10.00 10.00 10.00 10.00 10.00 10.00 10.00 10.00 10.00 10.00 10.00 10.00 10.00 10.00 10.00 10.00 10.00 10.00 10.00 10.00 10.00 10.00 10.00 10.00 10.00 10.00 10.00 10.00 10.00 10.00 10.00 10.00 10.00 10.00 10.00 10.00 10.00 10.00 10.00 10.00 10.00 10.00 10.00 10.00 10.00 10.00 10.00 10.00 10.00 10.00 10.00 10.00 10.00 10.00 10.00 10.00 10.00 10.00 10.00 10.00 10.00 10.00 10.00 10.00 10.00 10.00 10.00 10.00 10.00 10.00 10.00 10.00 10.00 10.00 10.00 10.00 10.00 10.00 10.00 10.00 10.00 10.00 10.00 10.00 10.00 10.00 10.00 10.00 10.00 10.00 10.00 10.00 10.00 10.00 10.00 10.00 10.00 10.00 10.00 10.00 10.00 10.00 10.00 10.00 10.00 10.00 10.00 10.00 10.00 10.00 10.00 10.00 10.00 10.00 10.00 10.00 10.00 10.00 10.00 10.00 10.00 10.00 10.00 10.00 10.00 10.00 10.00 10.00 10.00 10.00 10.00 10.00 10.00 10.00 10.00 10.00 10.00 10.00 10.00 10.00 10.00 10.00 10.00 10.00 10.00 10.00 10.00 10.00 10.00 10.00 10.00 10.00 10.00 10.00 10.00 10.00 10.00 10.00 10.00 10.00 10.00 10.00 10.00 10.00 10.00 10.00 10.00 10.00 10.00 10.00 10.00 10.00 10.00 10.00 10.00 10.00 10.00 10.00 10.00 10.00 10.00 10.00 10.00 10.00 10.00 10.00 10.00 9.96 9.87 9.80 9.74 9.71 9.68 9.66 9.64 9.61 9.58 9.53 9.46 9.40 9.33 9.27 9.22 9.20 9.20 9.22 9.27 9.33 9.39 9.46 9.52 9.57 9.60 9.60 9.59 9.56 9.51 9.44 9.37 9.30 9.23 9.16 9.10 9.05 9.00 8.96 8.93 8.91 8.88 8.86 8.83 8.80 8.76 8.72 8.69 8.66 8.64 8.63 8.65 8.70 8.77 8.87 8.99 9.12 9.26 9.39 9.51 9.59 9.64 9.65 9.64 9.61 9.57 9.52 9.48 9.45 9.40 9.36 9.31 9.24 9.16 9.08 8.97 8.85 8.72 8.58 8.43 8.28 8.14 7.99 7.86 7.75 7.64 7.56 7.49 7.43 7.39 7.36 7.33 7.30 7.26 7.21 7.15 7.09 7.02 6.94 6.87 6.81 6.76 6.72 6.70 6.69 6.69 6.71 6.73 6.76 6.78 6.79 6.77 6.73 6.66 6.57 6.46 6.35 6.24 6.13 6.02 5.92 5.83 5.68 5.30 5.26 5.24 5.24 5.27 5.44 5.49 5.54 5.58 5.61 5.62 5.61 5.58 5.54 5.50 5.44 5.38 5.32 5.25 5.20 5.15 5.12
10.00 10.00 10.00 10.00 10.00 10.00 10.00 10.00 10.00 10.00 10.00 10.00 10.00 10.00 10.00 10.00 10.00 10.00 10.00 10.00 10.00 10.00 10.00 10.00 10.00 10.00 10.00 10.00 10.00 10.00 10.00 10.00 10.00 10.00 10.00 10.00 10.00 10.00 10.00 10.00 10.00 10.00 10.00 10.00 10.00 10.00 10.00 10.00 10.00 10.00 10.00 10.00 10.00 10.00 10.00 10.00 10.00 10.00 10.00 10.00 10.00 10.00 10.00 10.00 10.00 10.00 10.00 10.00 10.00 10.00 10.00 10.00 10.00 10.00 10.00 10.00 10.00 10.00 10.00 10.00 10.00 10.00 10.00 10.00 10.00 10.00 10.00 10.00 10.00 10.00 10.00 10.00 10.00 10.00 10.00 10.00 10.00 10.00 10.00 10.00 10.00 10.00 10.00 10.00 10.00 10.00 10.00 10.00 10.00 10.00 10.00 10.00 10.00 10.00 10.00 10.00 10.00 10.00 10.00 10.00 10.00 10.00 10.00 10.00 10.00 10.00 10.00 10.00 10.00 10.00 10.00 10.00 10.00 10.00 10.00 10.00 10.00 10.00 10.00 10.00 10.00 10.00 10.00 10.00 10.00 10.00 10.00 10.00 10.00 10.00 10.00 10.00 10.00 10.00 10.00 10.00 10.00 10.00 10.00 10.00 10.00 10.00 10.00 10.00 10.00 10.00 10.00 10.00 10.00 10.00 10.00 10.00 10.00 10.00 10.00 10.00 10.00 10.00 10.00 10.00 10.00 10.00 10.00 10.00 10.00 10.00 10.00 10.00 10.00 10.00 10.00 10.00 10.00 10.00 10.00 10.00 10.00 10.00 10.00 10.00 10.00 10.00 10.00 10.00 10.00 10.00 10.00 10.00 10.00 10.00 10.00 10.00 10.00 10.00 10.00 10.00 10.00 10.00 10.00 10.00 10.00 10.00 10.00 10.00 10.00 10.00 10.00 10.00 10.00 10.00 10.00 10.00 10.00 10.00 10.00 10.00 10.00 10.00 10.00 10.00 10.00 10.00 10.00 10.00 10.00 10.00 10.00 10.00 10.00 10.00 10.00 10.00 10.00 10.00 10.00 10.00 10.00 10.00 9.96 9.91 9.88 9.87 9.89 9.92 9.98 10.00 10.00 10.00 10.00 10.00 10.00 10.00 10.00 10.00 10.00 10.00 10.00 10.00 9.97 9.87 9.79 9.73 9.69 9.67 9.66 9.65 9.64 9.62 9.59 9.54 9.48 9.40 9.32 9.25 9.19 9.16 9.15 9.16 9.21 9.26 9.34 9.41 9.49 9.55 9.59 9.61 9.60 9.56 9.51 9.44 9.37 9.29 9.22 9.15 9.09 9.04 9.00 8.97 8.95 8.94 8.93 8.91 8.90 8.87 8.84 8.81 8.77 8.75 8.73 8.73 8.75 8.80 8.87 8.96 9.07 9.19 9.31 9.42 9.50 9.56 9.58 9.58 9.55 9.50 9.45 9.41 9.36 9.32 9.28 9.24 9.19 9.13 9.05 8.96 8.86 8.74 8.61 8.47 8.32 8.17 8.02 7.88 7.74 7.62 7.52 7.43 7.37 7.32 7.29 7.26 7.24 7.22 7.20 7.17 7.12 7.07 7.00 6.93 6.86 6.80 6.75 6.71 6.69 6.68 6.68 6.70 6.73 6.76 6.78 6.79 6.77 6.72 6.65 6.56 6.45 6.33 6.21 6.09 5.98 5.87 5.76 5.54 5.37 5.32 5.28 5.27 5.30 5.40 5.45 5.50 5.54 5.57 5.58 5.56 5.54 5.50 5.45 5.39 5.32 5.25 5.19 5.13 5.08 5.05
10.00 10.00 10.00 10.00 10.00 10.00 10.00 10.00 10.00 10.00 10.00 10.00 10.00 10.00 10.00 10.00 10.00 10.00 10.00 10.00 10.00 10.00 10.00 10.00 10.00 10.00 10.00 10.00 10.00 10.00 10.00 10.00 10.00 10.00 10.00 10.00 10.00 10.00 10.00 10.00 10.00 10.00 10.00 10.00 10.00 10.00 10.00 10.00 10.00 10.00 10.00 10.00 10.00 10.00 10.00 10.00 10.00 10.00 10.00 10.00 10.00 10.00 10.00 10.00 10.00 10.00 10.00 10.00 10.00 10.00 10.00 10.00 10.00 10.00 10.00 10.00 10.00 10.00 10.00 10.00 10.00 10.00 10.00 10.00 10.00 10.00 10.00 10.00 10.00 10.00 10.00 10.00 10.00 10.00 10.00 10.00 10.00 10.00 10.00 10.00 10.00 10.00 10.00 10.00 10.00 10.00 10.00 10.00 10.00 10.00 10.00 10.00 10.00 10.00 10.00 10.00 10.00 10.00 10.00 10.00 10.00 10.00 10.00 10.00 10.00 10.00 10.00 10.00 10.00 10.00 10.00 10.00 10.00 10.00 10.00 10.00 10.00 10.00 10.00 10.00 10.00 10.00 10.00 10.00 10.00 10.00 10.00 10.00 10.00 10.00 10.00 10.00 10.00 10.00 10.00 10.00 10.00 10.00 10.00 10.00 10.00 10.00 10.00 10.00 10.00 10.00 10.00 10.00 10.00 10.00 10.00 10.00 10.00 10.00 10.00 10.00 10.00 10.00 10.00 10.00 10.00 10.00 10.00 10.00 10.00 10.00 10.00 10.00 10.00 10.00 10.00 10.00 10.00 10.00 10.00 10.00 10.00 10.00 10.00 10.00 10.00 10.00 10.00 10.00 10.00 10.00 10.00 10.00 10.00 10.00 10.00 10.00 10.00 10.00 10.00 10.00 10.00 10.00 10.00 10.00 10.00 10.00 10.00 10.00 10.00 10.00 10.00 10.00 10.00 10.00 10.00 10.00 10.00 10.00 10.00 10.00 10.00 10.00 10.00 10.00 10.00 10.00 10.00 10.00 10.00 10.00 10.00 10.00 10.00 10.00 10.00 10.00 10.00 10.00 10.00 9.96 9.88 9.81 9.75 9.71 9.69 9.69 9.71 9.75 9.81 9.88 9.97 10.00 10.00 10.00 10.00 10.00 10.00 10.00 10.00 10.00 10.00 9.97 9.88 9.80 9.73 9.69 9.66 9.65 9.65 9.66 9.66 9.65 9.63 9.58 9.52 9.43 9.34 9.26 9.19 9.14 9.12 9.12 9.16 9.21 9.28 9.36 9.44 9.50 9.55 9.58 9.57 9.54 9.49 9.42 9.34 9.27 9.19 9.12 9.07 9.03 9.00 8.98 8.97 8.97 8.96 8.96 8.95 8.93 8.90 8.87 8.84 8.82 8.80 8.80 8.83 8.87 8.94 9.03 9.13 9.23 9.33 9.42 9.49 9.52 9.52 9.50 9.46 9.40 9.34 9.29 9.24 9.19 9.15 9.11 9.06 9.00 8.93 8.85 8.75 8.64 8.51 8.37 8.22 8.07 7.92 7.78 7.64 7.52 7.42 7.34 7.28 7.24 7.22 7.20 7.20 7.19 7.18 7.16 7.12 7.08 7.02 6.96 6.89 6.83 6.78 6.74 6.72 6.71 6.72 6.74 6.77 6.80 6.82 6.83 6.81 6.76 6.68 6.58 6.47 6.34 6.22 6.10 5.98 5.87 5.76 5.60 5.47 5.40 5.36 5.35 5.37 5.43 5.48 5.52 5.56 5.59 5.59 5.58 5.55 5.50 5.45 5.38 5.31 5.24 5.17 5.11 5.07 5.04
10.00 10.00 10.00 10.00 10.00 10.00 10.00 10.00 10.00 10.00 10.00 10.00 10.00 10.00 10.00 10.00 10.00 10.00 10.00 10.00 10.00 10.00 10.00 10.00 10.00 10.00 10.00 10.00 10.00 10.00 10.00 10.00 10.00 10.00 10.00 10.00 10.00 10.00 10.00 10.00 10.00 10.00 10.00 10.00 10.00 10.00 10.00 10.00 10.00 10.00 10.00 10.00 10.00 10.00 10.00 10.00 10.00 10.00 10.00 10.00 10.00 10.00 10.00 10.00 10.00 10.00 10.00 10.00 10.00 10.00 10.00 10.00 10.00 10.00 10.00 10.00 10.00 10.00 10.00 10.00 10.00 10.00 10.00 10.00 10.00 10.00 10.00 10.00 10.00 10.00 10.00 10.00 10.00 10.00 10.00 10.00 10.00 10.00 10.00 10.00 10.00 10.00 10.00 10.00 10.00 10.00 10.00 10.00 10.00 10.00 10.00 10.00 10.00 10.00 10.00 10.00 10.00 10.00 10.00 10.00 10.00 10.00 10.00 10.00 10.00 10.00 10.00 10.00 10.00 10.00 10.00 10.00 10.00 10.00 10.00 10.00 10.00 10.00 10.00 10.00 10.00 10.00 10.00 10.00 10.00 10.00 10.00 10.00 10.00 10.00 10.00 10.00 10.00 10.00 10.00 10.00 10.00 10.00 10.00 10.00 10.00 10.00 10.00 10.00 10.00 10.00 10.00 10.00 10.00 10.00 10.00 10.00 10.00 10.00 10.00 10.00 10.00 10.00 10.00 10.00 10.00 10.00 10.00 10.00 10.00 10.00 10.00 10.00 10.00 10.00 10.00 10.00 10.00 10.00 10.00 10.00 10.00 10.00 10.00 10.00 10.00 10.00 10.00 10.00 10.00 10.00 10.00 10.00 10.00 10.00 10.00 10.00 10.00 10.00 10.00 10.00 10.00 10.00 10.00 10.00 10.00 10.00 10.00 10.00 10.00 10.00 10.00 10.00 10.00 10.00 10.00 10.00 10.00 10.00 10.00 10.00 10.00 10.00 10.00 10.00 10.00 10.00 10.00 10.00 10.00 10.00 10.00 10.00 10.00 10.00 10.00 10.00 9.96 9.88 9.80 9.73 9.67 9.62 9.58 9.55 9.54 9.55 9.58 9.62 9.68 9.76 9.83 9.92 10.00 10.00 10.00 10.00 10.00 10.00 10.00 10.00 9.94 9.86 9.78 9.72 9.67 9.64 9.63 9.64 9.65 9.67 9.69 9.69 9.67 9.63 9.56 9.47 9.38 9.28 9.20 9.14 9.11 9.10 9.12 9.17 9.23 9.30 9.37 9.44 9.49 9.52 9.52 9.49 9.44 9.37 9.30 9.22 9.15 9.08 9.03 8.99 8.97 8.96 8.96 8.97 8.97 8.97 8.97 8.95 8.92 8.89 8.86 8.84 8.82 8.82 8.84 8.89 8.95 9.04 9.13 9.22 9.31 9.38 9.43 9.45 9.44 9.41 9.35 9.29 9.22 9.16 9.10 9.05 9.01 8.97 8.92 8.87 8.80 8.72 8.63 8.53 8.40 8.27 8.13 7.98 7.83 7.68 7.55 7.44 7.34 7.27 7.22 7.19 7.17 7.17 7.18 7.18 7.18 7.17 7.15 7.12 7.07 7.01 6.94 6.89 6.84 6.80 6.78 6.77 6.78 6.81 6.84 6.87 6.89 6.89 6.87 6.82 6.74 6.63 6.51 6.39 6.26 6.14 6.03 5.92 5.81 5.68 5.58 5.52 5.48 5.46 5.48 5.52 5.56 5.60 5.63 5.66 5.66 5.64 5.60 5.55 5.49 5.43 5.35 5.28 5.21 5.15 5.10 5.08
10.00 10.00 10.00 10.00 10.00 10.00 10.00 10.00 10.00 10.00 10.00 10.00 10.00 10.00 10.00 10.00 10.00 10.00 10.00 10.00 10.00 10.00 10.00 10.00 10.00 10.00 10.00 10.00 10.00 10.00 10.00 10.00 10.00 10.00 10.00 10.00 10.00 10.00 10.00 10.00 10.00 10.00 10.00 10.00 10.00 10.00 10.00 10.00 10.00 10.00 10.00 10.00 10.00 10.00 10.00 10.00 10.00 10.00 10.00 10.00 10.00 10.00 10.00 10.00 10.00 10.00 10.00 10.00 10.00 10.00 10.00 10.00 10.00 10.00 10.00 10.00 10.00 10.00 10.00 10.00 10.00 10.00 10.00 10.00 10.00 10.00 10.00 10.00 10.00 10.00 10.00 10.00 10.00 10.00 10.00 10.00 10.00 10.00 10.00 10.00 10.00 10.00 10.00 10.00 10.00 10.00 10.00 10.00 10.00 10.00 10.00 10.00 10.00 10.00 10.00 10.00 10.00 10.00 10.00 10.00 10.00 10.00 10.00 10.00 10.00 10.00 10.00 10.00 10.00 10.00 10.00 10.00 10.00 10.00 10.00 10.00 10.00 10.00 10.00 10.00 10.00 10.00 10.00 10.00 10.00 10.00 10.00 10.00 10.00 10.00 10.00 10.00 10.00 10.00 10.00 10.00 10.00 10.00 10.00 10.00 10.00 10.00 10.00 10.00 10.00 10.00 10.00 10.00 10.00 10.00 10.00 10.00 10.00 10.00 10.00 10.00 10.00 10.00 10.00 10.00 10.00 10.00 10.00 10.00 10.00 10.00 10.00 10.00 10.00 10.00 10.00 10.00 10.00 10.00 10.00 10.00 10.00 10.00 10.00 10.00 10.00 10.00 10.00 10.00 10.00 10.00 10.00 10.00 10.00 10.00 10.00 10.00 10.00 10.00 10.00 10.00 10.00 10.00 10.00 10.00 10.00 10.00 10.00 10.00 10.00 10.00 10.00 10.00 10.00 10.00 10.00 10.00 10.00 10.00 10.00 10.00 10.00 10.00 10.00 10.00 10.00 10.00 10.00 10.00 10.00 10.00 10.00 10.00 9.99 9.91 9.84 9.76 9.70 9.63 9.57 9.52 9.48 9.44 9.42 9.41 9.41 9.43 9.47 9.52 9.58 9.65 9.73 9.80 9.87 9.93 9.97 9.99 9.99 9.96 9.92 9.86 9.80 9.73 9.68 9.63 9.60 9.59 9.60 9.61 9.64 9.67 9.70 9.71 9.70 9.66 9.60 9.51 9.41 9.31 9.23 9.16 9.11 9.10 9.10 9.13 9.18 9.24 9.31 9.37 9.42 9.44 9.44 9.41 9.37 9.30 9.23 9.16 9.09 9.03 8.98 8.94 8.92 8.92 8.92 8.93 8.94 8.94 8.93 8.91 8.88 8.84 8.81 8.78 8.77 8.77 8.79 8.83 8.89 8.97 9.05 9.14 9.22 9.29 9.33 9.34 9.32 9.28 9.22 9.15 9.08 9.01 8.95 8.90 8.85 8.81 8.77 8.72 8.66 8.59 8.50 8.41 8.29 8.16 8.03 7.88 7.74 7.60 7.47 7.36 7.28 7.21 7.17 7.15 7.15 7.16 7.17 7.19 7.20 7.21 7.20 7.17 7.13 7.08 7.02 6.96 6.91 6.88 6.86 6.86 6.87 6.90 6.93 6.96 6.98 6.98 6.95 6.89 6.80 6.69 6.57 6.44 6.32 6.20 6.09 5.99 5.90 5.79 5.71 5.65 5.62 5.60 5.61 5.65 5.68 5.72 5.75 5.76 5.76 5.74 5.70 5.64 5.58 5.50 5.43 5.35 5.28 5.22 5.18 5.15
10.00 10.00 10.00 10.00 10.00 10.00 10.00 10.00 10.00 10.00 10.00 10.00 10.00 10.00 10.00 10.00 10.00 10.00 10.00 10.00 10.00 10.00 10.00 10.00 10.00 10.00 10.00 10.00 10.00 10.00 10.00 10.00 10.00 10.00 10.00 10.00 10.00 10.00 10.00 10.00 10.00 10.00 10.00 10.00 10.00 10.00 10.00 10.00 10.00 10.00 10.00 10.00 10.00 10.00 10.00 10.00 10.00 10.00 10.00 10.00 10.00 10.00 10.00 10.00 10.00 10.00 10.00 10.00 10.00 10.00 10.00 10.00 10.00 10.00 10.00 10.00 10.00 10.00 10.00 10.00 10.00 10.00 10.00 10.00 10.00 10.00 10.00 10.00 10.00 10.00 10.00 10.00 10.00 10.00 10.00 10.00 10.00 10.00 10.00 10.00 10.00 10.00 10.00 10.00 10.00 10.00 10.00 10.00 10.00 10.00 10.00 10.00 10.00 10.00 10.00 10.00 10.00 10.00 10.00 10.00 10.00 10.00 10.00 10.00 10.00 10.00 10.00 10.00 10.00 10.00 10.00 10.00 10.00 10.00 10.00 10.00 10.00 10.00 10.00 10.00 10.00 10.00 10.00 10.00 10.00 10.00 10.00 10.00 10.00 10.00 10.00 10.00 10.00 10.00 10.00 10.00 10.00 10.00 10.00 10.00 10.00 10.00 10.00 10.00 10.00 10.00 10.00 10.00 10.00 10.00 10.00 10.00 10.00 10.00 10.00 10.00 10.00 10.00 10.00 10.00 10.00 10.00 10.00 10.00 10.00 10.00 10.00 10.00 10.00 10.00 10.00 10.00 10.00 10.00 10.00 10.00 10.00 10.00 10.00 10.00 10.00 10.00 10.00 10.00 10.00 10.00 10.00 10.00 10.00 10.00 10.00 10.00 10.00 10.00 10.00 10.00 10.00 10.00 10.00 10.00 10.00 10.00 10.00 10.00 10.00 10.00 10.00 10.00 10.00 10.00 10.00 10.00 10.00 10.00 10.00 10.00 10.00 10.00 10.00 10.00 10.00 10.00 10.00 10.00 10.00 10.00 9.92 9.82 9.73 9.65 9.58 9.51 9.46 9.40 9.36 9.32 9.30 9.28 9.28 9.29 9.30 9.34 9.38 9.44 9.50 9.57 9.64 9.70 9.76 9.80 9.83 9.84 9.82 9.79 9.75 9.70 9.65 9.60 9.56 9.53 9.52 9.53 9.54 9.57 9.61 9.65 9.68 9.70 9.70 9.67 9.61 9.52 9.43 9.33 9.25 9.18 9.12 9.10 9.09 9.11 9.14 9.19 9.25 9.30 9.33 9.35 9.35 9.32 9.27 9.21 9.15 9.08 9.01 8.95 8.91 8.87 8.85 8.85 8.85 8.85 8.85 8.85 8.83 8.80 8.77 8.73 8.69 8.66 8.64 8.64 8.66 8.70 8.76 8.83 8.91 9.00 9.08 9.14 9.18 9.19 9.17 9.13 9.07 8.99 8.92 8.85 8.78 8.73 8.68 8.64 8.60 8.55 8.50 8.44 8.36 8.28 8.17 8.05 7.92 7.78 7.64 7.51 7.39 7.29 7.21 7.15 7.12 7.11 7.12 7.14 7.17 7.20 7.22 7.24 7.24 7.22 7.19 7.15 7.09 7.04 7.00 6.97 6.96 6.96 6.97 7.00 7.03 7.05 7.06 7.05 7.02 6.95 6.86 6.75 6.63 6.50 6.38 6.27 6.17 6.08 5.99 5.91 5.84 5.80 5.77 5.76 5.77 5.80 5.83 5.86 5.88 5.90 5.89 5.86 5.81 5.75 5.69 5.61 5.53 5.46 5.39 5.33 5.29 5.27
10.00 10.00 10.00 10.00 10.00 10.00 10.00 10.00 10.00 10.00 10.00 10.00 10.00 10.00 10.00 10.00 10.00 10.00 10.00 10.00 10.00 10.00 10.00 10.00 10.00 10.00 10.00 10.00 10.00 10.00 10.00 10.00 10.00 10.00 10.00 10.00 10.00 10.00 10.00 10.00 10.00 10.00 10.00 10.00 10.00 10.00 10.00 10.00 10.00 10.00 10.00 10.00 10.00 10.00 10.00 10.00 10.00 10.00 10.00 10.00 10.00 10.00 10.00 10.00 10.00 10.00 10.00 10.00 10.00 10.00 10.00 10.00 10.00 10.00 10.00 10.00 10.00 10.00 10.00 10.00 10.00 10.00 10.00 10.00 10.00 10.00 10.00 10.00 10.00 10.00 10.00 10.00 10.00 10.00 10.00 10.00 10.00 10.00 10.00 10.00 10.00 10.00 10.00 10.00 10.00 10.00 10.00 10.00 10.00 10.00 10.00 10.00 10.00 10.00 10.00 10.00 10.00 10.00 10.00 10.00 10.00 10.00 10.00 10.00 10.00 10.00 10.00 10.00 10.00 10.00 10.00 10.00 10.00 10.00 10.00 10.00 10.00 10.00 10.00 10.00 10.00 10.00 10.00 10.00 10.00 10.00 10.00 10.00 10.00 10.00 10.00 10.00 10.00 10.00 10.00 10.00 10.00 10.00 10.00 10.00 10.00 10.00 10.00 10.00 10.00 10.00 10.00 10.00 10.00 10.00 10.00 10.00 10.00 10.00 10.00 10.00 10.00 10.00 10.00 10.00 10.00 10.00 10.00 10.00 10.00 10.00 10.00 10.00 10.00 10.00 10.00 10.00 10.00 10.00 10.00 10.00 10.00 10.00 10.00 10.00 10.00 10.00 10.00 10.00 10.00 10.00 10.00 10.00 10.00 10.00 10.00 10.00 10.00 10.00 10.00 10.00 10.00 10.00 10.00 10.00 10.00 10.00 10.00 10.00 10.00 10.00 10.00 10.00 10.00 10.00 10.00 10.00 10.00 10.00 10.00 10.00 10.00 10.00 10.00 10.00 10.00 10.00 10.00 10.00 9.89 9.79 9.68 9.59 9.50 9.42 9.35 9.29 9.24 9.20 9.17 9.15 9.14 9.14 9.15 9.17 9.20 9.25 9.30 9.36 9.43 9.50 9.56 9.61 9.65 9.68 9.69 9.68 9.66 9.62 9.58 9.54 9.50 9.46 9.44 9.42 9.42 9.44 9.46 9.50 9.54 9.58 9.62 9.65 9.65 9.62 9.57 9.50 9.42 9.33 9.25 9.18 9.13 9.10 9.08 9.09 9.11 9.14 9.18 9.22 9.24 9.25 9.24 9.21 9.17 9.12 9.06 8.99 8.93 8.87 8.83 8.79 8.76 8.75 8.74 8.73 8.72 8.70 8.67 8.63 8.59 8.55 8.51 8.48 8.46 8.46 8.48 8.52 8.58 8.65 8.73 8.82 8.89 8.95 8.99 9.00 8.98 8.94 8.88 8.81 8.73 8.66 8.60 8.54 8.49 8.45 8.41 8.37 8.33 8.27 8.21 8.14 8.05 7.94 7.81 7.68 7.55 7.42 7.31 7.21 7.14 7.09 7.07 7.07 7.09 7.12 7.15 7.19 7.23 7.25 7.27 7.26 7.24 7.21 7.17 7.13 7.09 7.07 7.06 7.06 7.07 7.09 7.12 7.14 7.14 7.12 7.08 7.01 6.91 6.80 6.68 6.56 6.44 6.34 6.25 6.16 6.09 6.03 5.98 5.95 5.93 5.92 5.94 5.96 5.99 6.01 6.03 6.04 6.02 5.99 5.94 5.88 5.81 5.73 5.66 5.59 5.52 5.47 5.43 5.41
10.00 10.00 10.00 10.00 10.00 10.00 10.00 10.00 10.00 10.00 10.00 10.00 10.00 10.00 10.00 10.00 10.00 10.00 10.00 10.00 10.00 10.00 10.00 10.00 10.00 10.00 10.00 10.00 10.00 10.00 10.00 10.00 10.00 10.00 10.00 10.00 10.00 10.00 10.00 10.00 10.00 10.00 10.00 10.00 10.00 10.00 10.00 10.00 10.00 10.00 10.00 10.00 10.00 10.00 10.00 10.00 10.00 10.00 10.00 10.00 10.00 10.00 10.00 10.00 10.00 10.00 10.00 10.00 10.00 10.00 10.00 10.00 10.00 10.00 10.00 10.00 10.00 10.00 10.00 10.00 10.00 10.00 10.00 10.00 10.00 10.00 10.00 10.00 10.00 10.00 10.00 10.00 10.00 10.00 10.00 10.00 10.00 10.00 10.00 10.00 10.00 10.00 10.00 10.00 10.00 10.00 10.00 10.00 10.00 10.00 10.00 10.00 10.00 10.00 10.00 10.00 10.00 10.00 10.00 10.00 10.00 10.00 10.00 10.00 10.00 10.00 10.00 10.00 10.00 10.00 10.00 10.00 10.00 10.00 10.00 10.00 10.00 10.00 10.00 10.00 10.00 10.00 10.00 10.00 10.00 10.00 10.00 10.00 10.00 10.00 10.00 10.00 10.00 10.00 10.00 10.00 10.00 10.00 10.00 10.00 10.00 10.00 10.00 10.00 10.00 10.00 10.00 10.00 10.00 10.00 10.00 10.00 10.00 10.00 10.00 10.00 10.00 10.00 10.00 10.00 10.00 10.00 10.00 10.00 10.00 10.00 10.00 10.00 10.00 10.00 10.00 10.00 10.00 10.00 10.00 10.00 10.00 10.00 10.00 10.00 10.00 10.00 10.00 10.00 10.00 10.00 10.00 10.00 10.00 10.00 10.00 10.00 10.00 10.00 10.00 10.00 10.00 10.00 10.00 10.00 10.00 10.00 10.00 10.00 10.00 10.00 10.00 10.00 10.00 10.00 10.00 10.00 10.00 10.00 10.00 10.00 10.00 10.00 10.00 10.00 9.99 9.93 9.85 9.76 9.66 9.55 9.46 9.36 9.28 9.21 9.14 9.09 9.05 9.02 9.00 8.99 8.99 9.00 9.03 9.06 9.11 9.16 9.22 9.29 9.36 9.42 9.48 9.52 9.55 9.56 9.55 9.53 9.50 9.46 9.42 9.38 9.35 9.32 9.31 9.30 9.31 9.33 9.36 9.40 9.44 9.48 9.52 9.54 9.54 9.53 9.49 9.44 9.37 9.30 9.24 9.18 9.13 9.09 9.07 9.07 9.07 9.09 9.11 9.13 9.14 9.15 9.13 9.10 9.06 9.02 8.96 8.90 8.84 8.78 8.73 8.69 8.65 8.63 8.60 8.58 8.55 8.51 8.47 8.42 8.37 8.33 8.29 8.27 8.26 8.27 8.29 8.33 8.39 8.46 8.54 8.62 8.70 8.75 8.79 8.80 8.78 8.74 8.68 8.61 8.53 8.46 8.39 8.33 8.29 8.24 8.21 8.18 8.14 8.10 8.06 8.00 7.92 7.82 7.70 7.58 7.45 7.33 7.22 7.14 7.07 7.03 7.01 7.02 7.04 7.08 7.12 7.17 7.21 7.25 7.27 7.28 7.28 7.26 7.23 7.20 7.17 7.15 7.14 7.15 7.16 7.17 7.19 7.20 7.19 7.16 7.11 7.03 6.94 6.83 6.71 6.60 6.49 6.39 6.31 6.24 6.18 6.14 6.10 6.08 6.07 6.07 6.09 6.11 6.14 6.16 6.17 6.17 6.15 6.11 6.06 6.00 5.93 5.86 5.79 5.73 5.67 5.62 5.59 5.57
10.00 10.00 10.00 10.00 10.00 10.00 10.00 10.00 10.00 10.00 10.00 10.00 10.00 10.00 10.00 10.00 10.00 10.00 10.00 10.00 10.00 10.00 10.00 10.00 10.00 10.00 10.00 10.00 10.00 10.00 10.00 10.00 10.00 10.00 10.00 10.00 10.00 10.00 10.00 10.00 10.00 10.00 10.00 10.00 10.00 10.00 10.00 10.00 10.00 10.00 10.00 10.00 10.00 10.00 10.00 10.00 10.00 10.00 10.00 10.00 10.00 10.00 10.00 10.00 10.00 10.00 10.00 10.00 10.00 10.00 10.00 10.00 10.00 10.00 10.00 10.00 10.00 10.00 10.00 10.00 10.00 10.00 10.00 10.00 10.00 10.00 10.00 10.00 10.00 10.00 10.00 10.00 10.00 10.00 10.00 10.00 10.00 10.00 10.00 10.00 10.00 10.00 10.00 10.00 10.00 10.00 10.00 10.00 10.00 10.00 10.00 10.00 10.00 10.00 10.00 10.00 10.00 10.00 10.00 10.00 10.00 10.00 10.00 10.00 10.00 10.00 10.00 10.00 10.00 10.00 10.00 10.00 10.00 10.00 10.00 10.00 10.00 10.00 10.00 10.00 10.00 10.00 10.00 10.00 10.00 10.00 10.00 10.00 10.00 10.00 10.00 10.00 10.00 10.00 10.00 10.00 10.00 10.00 10.00 10.00 10.00 10.00 10.00 10.00 10.00 10.00 10.00 10.00 10.00 10.00 10.00 10.00 10.00 10.00 10.00 10.00 10.00 10.00 10.00 10.00 10.00 10.00 10.00 10.00 10.00 10.00 10.00 10.00 10.00 10.00 10.00 10.00 10.00 10.00 10.00 10.00 10.00 10.00 10.00 10.00 10.00 10.00 10.00 10.00 10.00 10.00 10.00 10.00 10.00 10.00 10.00 10.00 10.00 10.00 10.00 10.00 10.00 10.00 10.00 10.00 10.00 10.00 10.00 10.00 10.00 10.00 10.00 10.00 10.00 10.00 10.00 10.00 10.00 10.00 9.99 9.95 9.91 9.88 9.84 9.80 9.75 9.68 9.61 9.52 9.42 9.33 9.24 9.16 9.08 9.02 8.96 8.92 8.88 8.86 8.85 8.85 8.86 8.88 8.92 8.96 9.01 9.08 9.14 9.21 9.28 9.34 9.39 9.42 9.44 9.44 9.42 9.39 9.35 9.31 9.27 9.24 9.21 9.19 9.18 9.18 9.19 9.20 9.23 9.26 9.29 9.33 9.36 9.39 9.40 9.39 9.37 9.33 9.29 9.25 9.20 9.15 9.11 9.08 9.05 9.03 9.03 9.03 9.03 9.04 9.04 9.03 9.01 8.98 8.95 8.91 8.86 8.80 8.75 8.69 8.63 8.58 8.53 8.49 8.44 8.40 8.36 8.31 8.25 8.20 8.15 8.11 8.08 8.06 8.06 8.08 8.11 8.16 8.22 8.29 8.36 8.44 8.51 8.56 8.60 8.60 8.58 8.54 8.47 8.40 8.32 8.24 8.18 8.12 8.07 8.03 8.00 7.98 7.95 7.93 7.90 7.85 7.79 7.70 7.60 7.48 7.36 7.25 7.15 7.06 7.00 6.96 6.95 6.96 6.98 7.02 7.07 7.12 7.17 7.22 7.25 7.28 7.29 7.29 7.27 7.25 7.23 7.22 7.21 7.21 7.22 7.23 7.23 7.23 7.21 7.17 7.11 7.03 6.94 6.83 6.72 6.62 6.52 6.43 6.36 6.30 6.26 6.22 6.20 6.19 6.19 6.20 6.22 6.24 6.27 6.28 6.29 6.29 6.27 6.23 6.18 6.12 6.06 5.99 5.93 5.87 5.82 5.78 5.76 5.74
10.00 10.00 10.00 10.00 10.00 10.00 10.00 10.00 10.00 10.00 10.00 10.00 10.00 10.00 10.00 10.00 10.00 10.00 10.00 10.00 10.00 10.00 10.00 10.00 10.00 10.00 10.00 10.00 10.00 10.00 10.00 10.00 10.00 10.00 10.00 10.00 10.00 10.00 10.00 10.00 10.00 10.00 10.00 10.00 10.00 10.00 10.00 10.00 10.00 10.00 10.00 10.00 10.00 10.00 10.00 10.00 10.00 10.00 10.00 10.00 10.00 10.00 10.00 10.00 10.00 10.00 10.00 10.00 10.00 10.00 10.00 10.00 10.00 10.00 10.00 10.00 10.00 10.00 10.00 10.00 10.00 10.00 10.00 10.00 10.00 10.00 10.00 10.00 10.00 10.00 10.00 10.00 10.00 10.00 10.00 10.00 10.00 10.00 10.00 10.00 10.00 10.00 10.00 10.00 10.00 10.00 10.00 10.00 10.00 10.00 10.00 10.00 10.00 10.00 10.00 10.00 10.00 10.00 10.00 10.00 10.00 10.00 10.00 10.00 10.00 10.00 10.00 10.00 10.00 10.00 10.00 10.00 10.00 10.00 10.00 10.00 10.00 10.00 10.00 10.00 10.00 10.00 10.00 10.00 10.00 10.00 10.00 10.00 10.00 10.00 10.00 10.00 10.00 10.00 10.00 10.00 10.00 10.00 10.00 10.00 10.00 10.00 10.00 10.00 10.00 10.00 10.00 10.00 10.00 10.00 10.00 10.00 10.00 10.00 10.00 10.00 10.00 10.00 10.00 10.00 10.00 10.00 10.00 10.00 10.00 10.00 10.00 10.00 10.00 10.00 10.00 10.00 10.00 10.00 10.00 10.00 10.00 10.00 10.00 10.00 10.00 10.00 10.00 10.00 10.00 10.00 10.00 10.00 10.00 10.00 10.00 10.00 10.00 10.00 10.00 10.00 10.00 9.97 9.91 9.86 9.83 9.81 9.81 9.84 9.87 9.91 9.95 9.97 9.98 9.98 9.96 9.93 9.89 9.85 9.80 9.76 9.71 9.66 9.62 9.57 9.51 9.45 9.38 9.29 9.21 9.12 9.04 8.96 8.90 8.84 8.80 8.76 8.74 8.72 8.72 8.72 8.74 8.77 8.81 8.86 8.92 8.98 9.05 9.12 9.19 9.25 9.30 9.32 9.33 9.32 9.30 9.26 9.23 9.18 9.14 9.11 9.08 9.06 9.05 9.04 9.05 9.06 9.08 9.10 9.12 9.15 9.18 9.20 9.21 9.22 9.21 9.20 9.18 9.15 9.13 9.10 9.06 9.03 9.00 8.98 8.96 8.95 8.94 8.93 8.92 8.91 8.89 8.86 8.83 8.80 8.75 8.70 8.65 8.59 8.53 8.46 8.40 8.34 8.28 8.22 8.15 8.09 8.03 7.98 7.93 7.89 7.88 7.87 7.89 7.91 7.96 8.01 8.07 8.14 8.22 8.29 8.35 8.39 8.42 8.41 8.39 8.33 8.26 8.19 8.11 8.03 7.96 7.90 7.85 7.82 7.79 7.78 7.77 7.76 7.74 7.71 7.66 7.59 7.50 7.39 7.28 7.17 7.08 7.00 6.94 6.90 6.89 6.89 6.92 6.95 7.00 7.06 7.11 7.17 7.22 7.26 7.28 7.29 7.29 7.28 7.27 7.26 7.26 7.25 7.25 7.25 7.25 7.23 7.20 7.15 7.09 7.01 6.91 6.81 6.71 6.62 6.53 6.45 6.39 6.34 6.31 6.29 6.28 6.28 6.29 6.31 6.33 6.35 6.37 6.39 6.39 6.38 6.36 6.32 6.28 6.22 6.16 6.11 6.06 6.01 5.97 5.94 5.91 5.90
10.00 10.00 10.00 10.00 10.00 10.00 10.00 10.00 10.00 10.00 10.00 10.00 10.00 10.00 10.00 10.00 10.00 10.00 10.00 10.00 10.00 10.00 10.00 10.00 10.00 10.00 10.00 10.00 10.00 10.00 10.00 10.00 10.00 10.00 10.00 10.00 10.00 10.00 10.00 10.00 10.00 10.00 10.00 10.00 10.00 10.00 10.00 10.00 10.00 10.00 10.00 10.00 10.00 10.00 10.00 10.00 10.00 10.00 10.00 10.00 10.00 10.00 10.00 10.00 10.00 10.00 10.00 10.00 10.00 10.00 10.00 10.00 10.00 10.00 10.00 10.00 10.00 10.00 10.00 10.00 10.00 10.00 10.00 10.00 10.00 10.00 10.00 10.00 10.00 10.00 10.00 10.00 10.00 10.00 10.00 10.00 10.00 10.00 10.00 10.00 10.00 10.00 10.00 10.00 10.00 10.00 10.00 10.00 10.00 10.00 10.00 10.00 10.00 10.00 10.00 10.00 10.00 10.00 10.00 10.00 10.00 10.00 10.00 10.00 10.00 10.00 10.00 10.00 10.00 10.00 10.00 10.00 10.00 10.00 10.00 10.00 10.00 10.00 10.00 10.00 10.00 10.00 10.00 10.00 10.00 10.00 10.00 10.00 10.00 10.00 10.00 10.00 10.00 10.00 10.00 10.00 10.00 10.00 10.00 10.00 10.00 10.00 10.00 10.00 10.00 10.00 10.00 10.00 10.00 10.00 10.00 10.00 10.00 10.00 10.00 10.00 10.00 10.00 10.00 10.00 10.00 10.00 10.00 10.00 10.00 10.00 10.00 10.00 10.00 10.00 10.00 10.00 10.00 10.00 10.00 10.00 10.00 10.00 10.00 10.00 10.00 10.00 10.00 10.00 10.00 10.00 10.00 10.00 10.00 10.00 10.00 9.97 9.94 9.91 9.87 9.83 9.79 9.74 9.69 9.64 9.61 9.60 9.61 9.63 9.67 9.71 9.75 9.78 9.79 9.79 9.77 9.74 9.70 9.66 9.61 9.56 9.50 9.45 9.40 9.34 9.29 9.23 9.16 9.08 9.00 8.92 8.85 8.79 8.73 8.69 8.65 8.62 8.61 8.60 8.60 8.61 8.63 8.66 8.70 8.76 8.81 8.88 8.95 9.02 9.09 9.15 9.19 9.21 9.22 9.21 9.19 9.15 9.11 9.07 9.03 8.99 8.96 8.94 8.92 8.91 8.90 8.90 8.91 8.92 8.93 8.95 8.97 8.99 9.01 9.03 9.04 9.04 9.04 9.04 9.02 9.01 8.98 8.95 8.92 8.89 8.87 8.84 8.82 8.80 8.79 8.77 8.75 8.73 8.70 8.68 8.64 8.60 8.54 8.48 8.41 8.33 8.26 8.18 8.10 8.03 7.96 7.89 7.82 7.77 7.73 7.70 7.69 7.70 7.73 7.77 7.83 7.89 7.96 8.03 8.10 8.16 8.21 8.24 8.26 8.24 8.20 8.14 8.07 7.99 7.90 7.82 7.75 7.70 7.65 7.62 7.60 7.59 7.59 7.59 7.59 7.58 7.54 7.49 7.41 7.31 7.21 7.11 7.02 6.95 6.89 6.85 6.83 6.83 6.86 6.89 6.94 7.00 7.06 7.12 7.17 7.22 7.26 7.28 7.29 7.29 7.29 7.28 7.27 7.27 7.26 7.25 7.23 7.20 7.16 7.10 7.04 6.96 6.87 6.77 6.68 6.59 6.52 6.45 6.40 6.36 6.34 6.33 6.33 6.34 6.36 6.38 6.41 6.43 6.45 6.47 6.47 6.46 6.43 6.40 6.35 6.30 6.25 6.20 6.16 6.12 6.09 6.07 6.05 6.05
10.00 10.00 10.00 10.00 10.00 10.00 10.00 10.00 10.00 10.00 10.00 10.00 10.00 10.00 10.00 10.00 10.00 10.00 10.00 10.00 10.00 10.00 10.00 10.00 10.00 10.00 10.00 10.00 10.00 10.00 10.00 10.00 10.00 10.00 10.00 10.00 10.00 10.00 10.00 10.00 10.00 10.00 10.00 10.00 10.00 10.00 10.00 10.00 10.00 10.00 10.00 10.00 10.00 10.00 10.00 10.00 10.00 10.00 10.00 10.00 10.00 10.00 10.00 10.00 10.00 10.00 10.00 10.00 10.00 10.00 10.00 10.00 10.00 10.00 10.00 10.00 10.00 10.00 10.00 10.00 10.00 10.00 10.00 10.00 10.00 10.00 10.00 10.00 10.00 10.00 10.00 10.00 10.00 10.00 10.00 10.00 10.00 10.00 10.00 10.00 10.00 10.00 10.00 10.00 10.00 10.00 10.00 10.00 10.00 10.00 10.00 10.00 10.00 10.00 10.00 10.00 10.00 10.00 10.00 10.00 10.00 10.00 10.00 10.00 10.00 10.00 10.00 10.00 10.00 10.00 10.00 10.00 10.00 10.00 10.00 10.00 10.00 10.00 10.00 10.00 10.00 10.00 10.00 10.00 10.00 10.00 10.00 10.00 10.00 10.00 10.00 10.00 10.00 10.00 10.00 10.00 10.00 10.00 10.00 10.00 10.00 10.00 10.00 10.00 10.00 10.00 10.00 10.00 10.00 10.00 10.00 10.00 10.00 10.00 10.00 10.00 10.00 10.00 10.00 10.00 10.00 10.00 10.00 10.00 10.00 10.00 10.00 10.00 10.00 10.00 10.00 10.00 10.00 10.00 10.00 10.00 10.00 10.00 10.00 10.00 10.00 10.00 10.00 10.00 10.00 10.00 9.96 9.92 9.87 9.83 9.79 9.76 9.73 9.70 9.67 9.63 9.59 9.54 9.50 9.46 9.43 9.42 9.42 9.44 9.48 9.52 9.55 9.58 9.59 9.59 9.57 9.54 9.50 9.45 9.40 9.35 9.30 9.24 9.19 9.13 9.08 9.02 8.96 8.89 8.82 8.75 8.69 8.63 8.58 8.55 8.52 8.50 8.49 8.49 8.49 8.50 8.52 8.56 8.60 8.65 8.70 8.77 8.84 8.91 8.97 9.03 9.07 9.10 9.11 9.10 9.08 9.05 9.01 8.96 8.92 8.88 8.85 8.81 8.79 8.76 8.75 8.73 8.72 8.72 8.73 8.74 8.76 8.78 8.81 8.83 8.85 8.87 8.89 8.89 8.89 8.88 8.86 8.84 8.80 8.77 8.74 8.71 8.68 8.66 8.64 8.62 8.60 8.59 8.57 8.55 8.52 8.48 8.42 8.36 8.28 8.20 8.11 8.02 7.93 7.85 7.77 7.70 7.63 7.58 7.55 7.53 7.54 7.56 7.60 7.66 7.72 7.79 7.87 7.94 8.00 8.06 8.10 8.12 8.12 8.09 8.04 7.97 7.89 7.80 7.72 7.64 7.56 7.51 7.46 7.43 7.42 7.42 7.43 7.44 7.45 7.45 7.43 7.39 7.33 7.25 7.15 7.06 6.98 6.91 6.85 6.81 6.79 6.79 6.81 6.84 6.89 6.94 7.00 7.06 7.13 7.18 7.23 7.26 7.28 7.28 7.28 7.27 7.26 7.25 7.24 7.22 7.19 7.15 7.10 7.04 6.97 6.89 6.81 6.72 6.64 6.56 6.49 6.44 6.40 6.37 6.35 6.35 6.36 6.38 6.40 6.43 6.46 6.49 6.51 6.52 6.52 6.51 6.48 6.44 6.40 6.35 6.31 6.26 6.23 6.20 6.18 6.17 6.16 6.16
10.00 10.00 10.00 10.00 10.00 10.00 10.00 10.00 10.00 10.00 10.00 10.00 10.00 10.00 10.00 10.00 10.00 10.00 10.00 10.00 10.00 10.00 10.00 10.00 10.00 10.00 10.00 10.00 10.00 10.00 10.00 10.00 10.00 10.00 10.00 10.00 10.00 10.00 10.00 10.00 10.00 10.00 10.00 10.00 10.00 10.00 10.00 10.00 10.00 10.00 10.00 10.00 10.00 10.00 10.00 10.00 10.00 10.00 10.00 10.00 10.00 10.00 10.00 10.00 10.00 10.00 10.00 10.00 10.00 10.00 10.00 10.00 10.00 10.00 10.00 10.00 10.00 10.00 10.00 10.00 10.00 10.00 10.00 10.00 10.00 10.00 10.00 10.00 10.00 10.00 10.00 10.00 10.00 10.00 10.00 10.00 10.00 10.00 10.00 10.00 10.00 10.00 10.00 10.00 10.00 10.00 10.00 10.00 10.00 10.00 10.00 10.00 10.00 10.00 10.00 10.00 10.00 10.00 10.00 10.00 10.00 10.00 10.00 10.00 10.00 10.00 10.00 10.00 10.00 10.00 10.00 10.00 10.00 10.00 10.00 10.00 10.00 10.00 10.00 10.00 10.00 10.00 10.00 10.00 10.00 10.00 10.00 10.00 10.00 10.00 10.00 10.00 10.00 10.00 10.00 10.00 10.00 10.00 10.00 10.00 10.00 10.00 10.00 10.00 10.00 10.00 10.00 10.00 10.00 10.00 10.00 10.00 10.00 10.00 10.00 10.00 10.00 10.00 10.00 10.00 10.00 10.00 10.00 10.00 10.00 10.00 10.00 10.00 10.00 10.00 10.00 10.00 10.00 10.00 10.00 10.00 10.00 10.00 10.00 10.00 10.00 10.00 9.95 9.90 9.86 9.82 9.78 9.74 9.70 9.66 9.63 9.59 9.56 9.54 9.51 9.47 9.43 9.38 9.34 9.30 9.27 9.25 9.25 9.27 9.30 9.33 9.35 9.37 9.38 9.37 9.36 9.32 9.28 9.24 9.19 9.14 9.08 9.03 8.98 8.92 8.87 8.82 8.76 8.71 8.64 8.59 8.53 8.49 8.45 8.42 8.40 8.39 8.38 8.38 8.38 8.39 8.42 8.44 8.48 8.53 8.58 8.64 8.71 8.78 8.84 8.90 8.94 8.97 8.99 8.98 8.96 8.94 8.90 8.86 8.81 8.77 8.72 8.68 8.64 8.61 8.58 8.55 8.53 8.52 8.52 8.53 8.56 8.58 8.61 8.65 8.68 8.71 8.73 8.74 8.75 8.74 8.72 8.69 8.65 8.62 8.58 8.54 8.51 8.49 8.47 8.46 8.44 8.43 8.42 8.41 8.38 8.35 8.30 8.23 8.15 8.06 7.96 7.87 7.77 7.68 7.60 7.52 7.46 7.42 7.39 7.38 7.40 7.43 7.49 7.55 7.63 7.71 7.79 7.86 7.92 7.97 8.00 8.01 7.99 7.95 7.89 7.82 7.73 7.64 7.55 7.47 7.40 7.34 7.30 7.27 7.26 7.27 7.29 7.31 7.33 7.34 7.33 7.30 7.25 7.18 7.10 7.02 6.94 6.88 6.82 6.78 6.76 6.76 6.77 6.80 6.84 6.90 6.96 7.02 7.08 7.14 7.19 7.22 7.25 7.26 7.25 7.25 7.23 7.22 7.19 7.16 7.13 7.09 7.03 6.97 6.90 6.82 6.75 6.67 6.59 6.53 6.47 6.42 6.39 6.36 6.36 6.36 6.38 6.40 6.43 6.46 6.50 6.52 6.54 6.55 6.55 6.53 6.50 6.46 6.42 6.37 6.33 6.30 6.27 6.25 6.24 6.23 6.23 6.23
10.00 10.00 10.00 10.00 10.00 10.00 10.00 10.00 10.00 10.00 10.00 10.00 10.00 10.00 10.00 10.00 10.00 10.00 10.00 10.00 10.00 10.00 10.00 10.00 10.00 10.00 10.00 10.00 10.00 10.00 10.00 10.00 10.00 10.00 10.00 10.00 10.00 10.00 10.00 10.00 10.00 10.00 10.00 10.00 10.00 10.00 10.00 10.00 10.00 10.00 10.00 10.00 10.00 10.00 10.00 10.00 10.00 10.00 10.00 10.00 10.00 10.00 10.00 10.00 10.00 10.00 10.00 10.00 10.00 10.00 10.00 10.00 10.00 10.00 10.00 10.00 10.00 10.00 10.00 10.00 10.00 10.00 10.00 10.00 10.00 10.00 10.00 10.00 10.00 10.00 10.00 10.00 10.00 10.00 10.00 10.00 10.00 10.00 10.00 10.00 10.00 10.00 10.00 10.00 10.00 10.00 10.00 10.00 10.00 10.00 10.00 10.00 10.00 10.00 10.00 10.00 10.00 10.00 10.00 10.00 10.00 10.00 10.00 10.00 10.00 10.00 10.00 10.00 10.00 10.00 10.00 10.00 10.00 10.00 10.00 10.00 10.00 10.00 10.00 10.00 10.00 10.00 10.00 10.00 10.00 10.00 10.00 10.00 10.00 10.00 10.00 10.00 10.00 10.00 10.00 10.00 10.00 10.00 10.00 10.00 10.00 10.00 10.00 10.00 10.00 10.00 10.00 10.00 10.00 10.00 10.00 10.00 10.00 10.00 10.00 10.00 10.00 10.00 10.00 10.00 10.00 10.00 10.00 10.00 10.00 10.00 10.00 10.00 10.00 10.00 10.00 10.00 10.00 10.00 10.00 10.00 10.00 10.00 9.99 9.92 9.86 9.81 9.77 9.73 9.70 9.66 9.63 9.59 9.56 9.52 9.49 9.45 9.42 9.39 9.36 9.33 9.28 9.24 9.20 9.16 9.13 9.11 9.10 9.11 9.12 9.14 9.15 9.16 9.16 9.15 9.13 9.10 9.06 9.01 8.96 8.92 8.87 8.81 8.77 8.72 8.68 8.63 8.58 8.53 8.48 8.43 8.39 8.35 8.32 8.30 8.28 8.27 8.27 8.27 8.27 8.28 8.30 8.33 8.36 8.40 8.45 8.50 8.56 8.63 8.69 8.75 8.80 8.83 8.85 8.85 8.84 8.81 8.78 8.74 8.69 8.64 8.59 8.54 8.49 8.44 8.40 8.36 8.34 8.33 8.33 8.34 8.37 8.40 8.44 8.48 8.51 8.54 8.57 8.58 8.58 8.57 8.55 8.51 8.48 8.43 8.39 8.36 8.33 8.30 8.29 8.28 8.28 8.27 8.27 8.26 8.24 8.20 8.15 8.09 8.01 7.92 7.82 7.71 7.61 7.52 7.44 7.36 7.31 7.26 7.24 7.24 7.27 7.31 7.37 7.45 7.53 7.62 7.70 7.77 7.83 7.87 7.89 7.89 7.87 7.82 7.76 7.67 7.58 7.49 7.40 7.32 7.25 7.20 7.16 7.14 7.13 7.14 7.16 7.19 7.21 7.23 7.24 7.22 7.18 7.12 7.05 6.98 6.91 6.85 6.80 6.77 6.75 6.74 6.75 6.78 6.82 6.86 6.92 6.98 7.04 7.10 7.14 7.18 7.20 7.21 7.21 7.20 7.19 7.16 7.14 7.10 7.06 7.01 6.96 6.90 6.83 6.76 6.69 6.61 6.55 6.49 6.44 6.40 6.37 6.36 6.35 6.36 6.38 6.41 6.44 6.48 6.51 6.53 6.55 6.56 6.55 6.53 6.50 6.46 6.42 6.37 6.34 6.30 6.28 6.27 6.26 6.26 6.26 6.26
10.00 10.00 10.00 10.00 10.00 10.00 10.00 10.00 10.00 10.00 10.00 10.00 10.00 10.00 10.00 10.00 10.00 10.00 10.00 10.00 10.00 10.00 10.00 10.00 10.00 10.00 10.00 10.00 10.00 10.00 10.00 10.00 10.00 10.00 10.00 10.00 10.00 10.00 10.00 10.00 10.00 10.00 10.00 10.00 10.00 10.00 10.00 10.00 10.00 10.00 10.00 10.00 10.00 10.00 10.00 10.00 10.00 10.00 10.00 10.00 10.00 10.00 10.00 10.00 10.00 10.00 10.00 10.00 10.00 10.00 10.00 10.00 10.00 10.00 10.00 10.00 10.00 10.00 10.00 10.00 10.00 10.00 10.00 10.00 10.00 10.00 10.00 10.00 10.00 10.00 10.00 10.00 10.00 10.00 10.00 10.00 10.00 10.00 10.00 10.00 10.00 10.00 10.00 10.00 10.00 10.00 10.00 10.00 10.00 10.00 10.00 10.00 10.00 10.00 10.00 10.00 10.00 10.00 10.00 10.00 10.00 10.00 10.00 10.00 10.00 10.00 10.00 10.00 10.00 10.00 10.00 10.00 10.00 10.00 10.00 10.00 10.00 10.00 10.00 10.00 10.00 10.00 10.00 10.00 10.00 10.00 10.00 10.00 10.00 10.00 10.00 10.00 10.00 10.00 10.00 10.00 10.00 10.00 10.00 10.00 10.00 10.00 10.00 10.00 10.00 10.00 10.00 10.00 10.00 10.00 10.00 10.00 10.00 10.00 10.00 10.00 10.00 10.00 10.00 10.00 10.00 10.00 10.00 10.00 10.00 10.00 10.00 10.00 10.00 10.00 10.00 10.00 10.00 10.00 10.00 10.00 9.92 9.85 9.78 9.72 9.68 9.64 9.60 9.57 9.55 9.52 9.49 9.46 9.43 9.39 9.36 9.32 9.29 9.26 9.23 9.19 9.15 9.11 9.07 9.03 9.00 8.98 8.96 8.96 8.96 8.97 8.97 8.97 8.96 8.94 8.91 8.87 8.83 8.79 8.74 8.70 8.65 8.61 8.56 8.52 8.48 8.45 8.41 8.37 8.33 8.29 8.25 8.22 8.20 8.18 8.17 8.16 8.15 8.15 8.15 8.16 8.17 8.19 8.22 8.25 8.30 8.35 8.40 8.46 8.52 8.58 8.63 8.66 8.69 8.70 8.69 8.67 8.64 8.60 8.55 8.50 8.44 8.38 8.32 8.26 8.21 8.17 8.15 8.14 8.14 8.16 8.19 8.23 8.27 8.31 8.35 8.38 8.40 8.41 8.41 8.39 8.36 8.32 8.28 8.23 8.19 8.16 8.13 8.11 8.10 8.10 8.10 8.10 8.10 8.09 8.08 8.05 8.00 7.94 7.86 7.77 7.67 7.57 7.47 7.38 7.30 7.23 7.17 7.13 7.11 7.12 7.14 7.19 7.26 7.33 7.42 7.51 7.59 7.66 7.72 7.75 7.77 7.77 7.74 7.69 7.62 7.54 7.45 7.36 7.27 7.19 7.13 7.07 7.04 7.02 7.02 7.03 7.05 7.08 7.11 7.13 7.14 7.13 7.11 7.06 7.00 6.94 6.89 6.83 6.79 6.76 6.74 6.73 6.74 6.76 6.80 6.84 6.89 6.95 7.00 7.05 7.10 7.13 7.15 7.16 7.16 7.15 7.13 7.10 7.07 7.03 6.99 6.94 6.89 6.83 6.76 6.70 6.63 6.57 6.51 6.46 6.41 6.38 6.36 6.35 6.35 6.36 6.38 6.41 6.44 6.48 6.50 6.53 6.54 6.54 6.53 6.51 6.48 6.44 6.40 6.36 6.32 6.29 6.27 6.26 6.26 6.26 6.27 6.27
10.00 10.00 10.00 10.00 10.00 10.00 10.00 10.00 10.00 10.00 10.00 10.00 10.00 10.00 10.00 10.00 10.00 10.00 10.00 10.00 10.00 10.00 10.00 10.00 10.00 10.00 10.00 10.00 10.00 10.00 10.00 10.00 10.00 10.00 10.00 10.00 10.00 10.00 10.00 10.00 10.00 10.00 10.00 10.00 10.00 10.00 10.00 10.00 10.00 10.00 10.00 10.00 10.00 10.00 10.00 10.00 10.00 10.00 10.00 10.00 10.00 10.00 10.00 10.00 10.00 10.00 10.00 10.00 10.00 10.00 10.00 10.00 10.00 10.00 10.00 10.00 10.00 10.00 10.00 10.00 10.00 10.00 10.00 10.00 10.00 10.00 10.00 10.00 10.00 10.00 10.00 10.00 10.00 10.00 10.00 10.00 10.00 10.00 10.00 10.00 10.00 10.00 10.00 10.00 10.00 10.00 10.00 10.00 10.00 10.00 10.00 10.00 10.00 10.00 10.00 10.00 10.00 10.00 10.00 10.00 10.00 10.00 10.00 10.00 10.00 10.00 10.00 10.00 10.00 10.00 10.00 10.00 10.00 10.00 10.00 10.00 10.00 10.00 10.00 10.00 10.00 10.00 10.00 10.00 10.00 10.00 10.00 10.00 10.00 10.00 10.00 10.00 10.00 10.00 10.00 10.00 10.00 10.00 10.00 10.00 10.00 10.00 10.00 10.00 10.00 10.00 10.00 10.00 10.00 10.00 10.00 10.00 10.00 10.00 10.00 10.00 10.00 10.00 10.00 10.00 10.00 10.00 10.00 10.00 10.00 10.00 10.00 10.00 10.00 10.00 10.00 10.00 9.97 9.90 9.83 9.76 9.70 9.63 9.58 9.54 9.50 9.46 9.44 9.42 9.39 9.37 9.35 9.33 9.30 9.27 9.23 9.20 9.16 9.13 9.10 9.06 9.02 8.98 8.95 8.91 8.88 8.86 8.84 8.82 8.81 8.81 8.80 8.78 8.76 8.73 8.70 8.66 8.62 8.57 8.53 8.49 8.45 8.40 8.37 8.33 8.30 8.27 8.24 8.21 8.18 8.15 8.12 8.10 8.08 8.06 8.05 8.04 8.03 8.02 8.02 8.03 8.03 8.05 8.07 8.09 8.13 8.17 8.22 8.27 8.33 8.38 8.43 8.47 8.50 8.52 8.52 8.50 8.47 8.43 8.39 8.33 8.27 8.20 8.14 8.08 8.02 7.98 7.96 7.95 7.96 7.99 8.02 8.06 8.10 8.14 8.18 8.21 8.23 8.23 8.22 8.20 8.16 8.12 8.07 8.03 7.99 7.96 7.93 7.92 7.91 7.91 7.92 7.92 7.93 7.92 7.91 7.88 7.84 7.79 7.71 7.63 7.54 7.44 7.35 7.26 7.17 7.10 7.05 7.01 6.99 6.99 7.02 7.06 7.13 7.20 7.29 7.38 7.46 7.53 7.58 7.62 7.63 7.62 7.60 7.55 7.48 7.41 7.32 7.24 7.16 7.08 7.02 6.97 6.94 6.92 6.92 6.93 6.95 6.98 7.01 7.03 7.05 7.04 7.03 6.99 6.95 6.90 6.85 6.81 6.78 6.75 6.74 6.73 6.74 6.76 6.79 6.83 6.87 6.92 6.96 7.01 7.04 7.07 7.09 7.10 7.09 7.08 7.06 7.03 7.00 6.96 6.92 6.87 6.82 6.77 6.71 6.65 6.59 6.53 6.48 6.43 6.39 6.37 6.35 6.34 6.34 6.36 6.38 6.40 6.43 6.46 6.48 6.50 6.51 6.51 6.50 6.48 6.44 6.41 6.37 6.33 6.30 6.27 6.25 6.24 6.24 6.25 6.25 6.26
10.00 10.00 10.00 10.00 10.00 10.00 10.00 10.00 10.00 10.00 10.00 10.00 10.00 10.00 10.00 10.00 10.00 10.00 10.00 10.00 10.00 10.00 10.00 10.00 10.00 10.00 10.00 10.00 10.00 10.00 10.00 10.00 10.00 10.00 10.00 10.00 10.00 10.00 10.00 10.00 10.00 10.00 10.00 10.00 10.00 10.00 10.00 10.00 10.00 10.00 10.00 10.00 10.00 10.00 10.00 10.00 10.00 10.00 10.00 10.00 10.00 10.00 10.00 10.00 10.00 10.00 10.00 10.00 10.00 10.00 10.00 10.00 10.00 10.00 10.00 10.00 10.00 10.00 10.00 10.00 10.00 10.00 10.00 10.00 10.00 10.00 10.00 10.00 10.00 10.00 10.00 10.00 10.00 10.00 10.00 10.00 10.00 10.00 10.00 10.00 10.00 10.00 10.00 10.00 10.00 10.00 10.00 10.00 10.00 10.00 10.00 10.00 10.00 10.00 10.00 10.00 10.00 10.00 10.00 10.00 10.00 10.00 10.00 10.00 10.00 10.00 10.00 10.00 10.00 10.00 10.00 10.00 10.00 10.00 10.00 10.00 10.00 10.00 10.00 10.00 10.00 10.00 10.00 10.00 10.00 10.00 10.00 10.00 10.00 10.00 10.00 10.00 10.00 10.00 10.00 10.00 10.00 10.00 10.00 10.00 10.00 10.00 10.00 10.00 10.00 10.00 10.00 10.00 10.00 10.00 10.00 10.00 10.00 10.00 9.99 9.93 9.88 9.84 9.80 9.79 9.79 9.80 9.81 9.82 9.83 9.83 9.83 9.83 9.81 9.80 9.77 9.74 9.70 9.64 9.59 9.53 9.48 9.43 9.39 9.35 9.32 9.29 9.27 9.25 9.23 9.22 9.20 9.19 9.16 9.13 9.10 9.06 9.03 8.99 8.96 8.93 8.89 8.86 8.83 8.79 8.77 8.74 8.72 8.70 8.68 8.66 8.64 8.61 8.58 8.55 8.51 8.46 8.42 8.38 8.33 8.29 8.25 8.21 8.18 8.15 8.13 8.11 8.09 8.07 8.05 8.03 8.00 7.98 7.96 7.94 7.93 7.91 7.90 7.89 7.88 7.88 7.88 7.89 7.91 7.93 7.95 7.99 8.03 8.07 8.12 8.17 8.22 8.26 8.29 8.31 8.31 8.30 8.28 8.24 8.19 8.14 8.07 8.01 7.94 7.88 7.83 7.80 7.78 7.77 7.79 7.81 7.85 7.89 7.93 7.97 8.01 8.03 8.04 8.04 8.03 8.01 7.97 7.92 7.88 7.83 7.79 7.76 7.74 7.73 7.72 7.73 7.73 7.74 7.74 7.74 7.73 7.71 7.68 7.63 7.57 7.49 7.41 7.32 7.23 7.15 7.07 7.00 6.95 6.91 6.89 6.88 6.90 6.94 6.99 7.06 7.14 7.22 7.30 7.37 7.42 7.46 7.47 7.47 7.45 7.41 7.35 7.28 7.20 7.13 7.05 6.99 6.93 6.88 6.85 6.84 6.83 6.84 6.86 6.88 6.91 6.93 6.95 6.95 6.94 6.91 6.88 6.85 6.81 6.78 6.76 6.74 6.73 6.73 6.74 6.76 6.78 6.81 6.85 6.88 6.92 6.96 6.98 7.01 7.02 7.03 7.02 7.01 6.99 6.96 6.93 6.89 6.85 6.81 6.76 6.71 6.66 6.60 6.55 6.50 6.45 6.41 6.38 6.36 6.34 6.33 6.34 6.34 6.36 6.38 6.41 6.43 6.45 6.46 6.47 6.47 6.46 6.43 6.41 6.37 6.34 6.30 6.27 6.24 6.23 6.22 6.21 6.22 6.22 6.23
10.00 10.00 10.00 10.00 10.00 10.00 10.00 10.00 10.00 10.00 10.00 10.00 10.00 10.00 10.00 10.00 10.00 10.00 10.00 10.00 10.00 10.00 10.00 10.00 10.00 10.00 10.00 10.00 10.00 10.00 10.00 10.00 10.00 10.00 10.00 10.00 10.00 10.00 10.00 10.00 10.00 10.00 10.00 10.00 10.00 10.00 10.00 10.00 10.00 10.00 10.00 10.00 10.00 10.00 10.00 10.00 10.00 10.00 10.00 10.00 10.00 10.00 10.00 10.00 10.00 10.00 10.00 10.00 10.00 10.00 10.00 10.00 10.00 10.00 10.00 10.00 10.00 10.00 10.00 10.00 10.00 10.00 10.00 10.00 10.00 10.00 10.00 10.00 10.00 10.00 10.00 10.00 10.00 10.00 10.00 10.00 10.00 10.00 10.00 10.00 10.00 10.00 10.00 10.00 10.00 10.00 10.00 10.00 10.00 10.00 10.00 10.00 10.00 10.00 10.00 10.00 10.00 10.00 10.00 10.00 10.00 10.00 10.00 10.00 10.00 10.00 10.00 10.00 10.00 10.00 10.00 10.00 10.00 10.00 10.00 10.00 10.00 10.00 10.00 10.00 10.00 10.00 10.00 10.00 10.00 10.00 10.00 10.00 10.00 10.00 10.00 10.00 10.00 10.00 10.00 10.00 10.00 10.00 10.00 10.00 9.99 9.95 9.92 9.91 9.92 9.93 9.94 9.95 9.95 9.93 9.90 9.86 9.82 9.78 9.74 9.69 9.65 9.62 9.59 9.57 9.57 9.57 9.57 9.58 9.58 9.58 9.57 9.57 9.55 9.54 9.52 9.49 9.45 9.41 9.36 9.31 9.27 9.23 9.19 9.16 9.13 9.10 9.08 9.07 9.06 9.05 9.04 9.03 9.01 8.98 8.96 8.92 8.89 8.86 8.83 8.80 8.77 8.74 8.71 8.68 8.65 8.62 8.60 8.57 8.55 8.52 8.49 8.46 8.42 8.38 8.34 8.29 8.25 8.20 8.16 8.12 8.08 8.04 8.02 7.99 7.98 7.96 7.95 7.94 7.92 7.91 7.89 7.87 7.84 7.82 7.80 7.78 7.76 7.75 7.74 7.73 7.73 7.73 7.74 7.75 7.77 7.80 7.83 7.87 7.91 7.96 8.00 8.04 8.07 8.08 8.09 8.08 8.06 8.03 7.98 7.93 7.87 7.80 7.74 7.68 7.64 7.61 7.59 7.59 7.61 7.64 7.68 7.72 7.76 7.79 7.82 7.85 7.86 7.86 7.84 7.82 7.78 7.74 7.70 7.66 7.62 7.59 7.57 7.56 7.55 7.55 7.56 7.57 7.57 7.57 7.56 7.54 7.52 7.48 7.43 7.36 7.29 7.22 7.14 7.06 6.99 6.92 6.86 6.82 6.79 6.78 6.79 6.81 6.86 6.91 6.98 7.06 7.13 7.19 7.25 7.29 7.31 7.31 7.29 7.26 7.21 7.16 7.09 7.03 6.96 6.90 6.85 6.81 6.78 6.76 6.75 6.76 6.77 6.79 6.81 6.83 6.84 6.84 6.84 6.82 6.80 6.78 6.76 6.74 6.72 6.72 6.72 6.72 6.73 6.75 6.77 6.79 6.81 6.84 6.87 6.90 6.92 6.93 6.94 6.95 6.94 6.93 6.91 6.88 6.85 6.82 6.78 6.74 6.70 6.65 6.61 6.56 6.51 6.47 6.43 6.39 6.37 6.34 6.33 6.32 6.32 6.32 6.34 6.35 6.37 6.38 6.40 6.41 6.42 6.41 6.41 6.39 6.36 6.34 6.30 6.27 6.24 6.21 6.19 6.18 6.18 6.18 6.18 6.18
10.00 10.00 10.00 10.00 10.00 10.00 10.00 10.00 10.00 10.00 10.00 10.00 10.00 10.00 10.00 10.00 10.00 10.00 10.00 10.00 10.00 10.00 10.00 10.00 10.00 10.00 10.00 10.00 10.00 10.00 10.00 10.00 10.00 10.00 10.00 10.00 10.00 10.00 10.00 10.00 10.00 10.00 10.00 10.00 10.00 10.00 10.00 10.00 10.00 10.00 10.00 10.00 10.00 10.00 10.00 10.00 10.00 10.00 10.00 10.00 10.00 10.00 10.00 10.00 10.00 10.00 10.00 10.00 10.00 10.00 10.00 10.00 10.00 10.00 10.00 10.00 10.00 10.00 10.00 10.00 10.00 10.00 10.00 10.00 10.00 10.00 10.00 10.00 10.00 10.00 10.00 10.00 10.00 10.00 10.00 10.00 10.00 10.00 10.00 10.00 10.00 10.00 10.00 10.00 10.00 10.00 10.00 10.00 10.00 10.00 10.00 10.00 10.00 10.00 10.00 10.00 10.00 10.00 10.00 10.00 10.00 10.00 10.00 10.00 10.00 10.00 10.00 10.00 10.00 10.00 10.00 10.00 10.00 10.00 10.00 10.00 10.00 10.00 10.00 10.00 10.00 10.00 10.00 10.00 10.00 10.00 10.00 10.00 10.00 10.00 10.00 10.00 10.00 10.00 10.00 10.00 10.00 9.94 9.88 9.82 9.76 9.72 9.68 9.66 9.66 9.66 9.66 9.66 9.66 9.64 9.62 9.60 9.58 9.55 9.52 9.49 9.46 9.43 9.41 9.39 9.38 9.37 9.37 9.37 9.36 9.36 9.35 9.34 9.33 9.32 9.29 9.27 9.23 9.19 9.15 9.11 9.06 9.03 8.99 8.96 8.93 8.90 8.88 8.87 8.86 8.86 8.86 8.85 8.84 8.82 8.80 8.78 8.75 8.72 8.69 8.66 8.64 8.61 8.58 8.56 8.53 8.50 8.47 8.44 8.41 8.38 8.35 8.31 8.27 8.23 8.18 8.14 8.09 8.05 8.01 7.97 7.93 7.89 7.87 7.85 7.84 7.83 7.82 7.81 7.80 7.79 7.77 7.75 7.72 7.70 7.67 7.64 7.62 7.60 7.58 7.57 7.57 7.57 7.57 7.58 7.60 7.62 7.64 7.67 7.71 7.74 7.78 7.81 7.84 7.86 7.86 7.85 7.83 7.80 7.76 7.71 7.65 7.59 7.53 7.48 7.44 7.42 7.41 7.42 7.44 7.47 7.50 7.54 7.58 7.61 7.64 7.66 7.67 7.67 7.66 7.64 7.61 7.57 7.54 7.50 7.47 7.45 7.42 7.41 7.40 7.40 7.41 7.41 7.41 7.41 7.40 7.39 7.36 7.33 7.29 7.25 7.19 7.13 7.06 6.99 6.92 6.85 6.80 6.75 6.71 6.69 6.68 6.70 6.73 6.77 6.83 6.89 6.95 7.01 7.07 7.11 7.13 7.14 7.14 7.12 7.08 7.04 6.99 6.93 6.88 6.82 6.78 6.74 6.71 6.69 6.68 6.68 6.68 6.69 6.71 6.72 6.73 6.73 6.73 6.72 6.71 6.70 6.69 6.68 6.67 6.67 6.68 6.69 6.70 6.72 6.73 6.75 6.77 6.79 6.81 6.82 6.84 6.85 6.86 6.86 6.85 6.84 6.82 6.80 6.77 6.74 6.70 6.67 6.63 6.60 6.56 6.52 6.48 6.44 6.41 6.37 6.35 6.33 6.31 6.30 6.29 6.29 6.30 6.30 6.32 6.33 6.34 6.35 6.35 6.36 6.35 6.34 6.32 6.29 6.26 6.23 6.20 6.18 6.16 6.14 6.14 6.13 6.13 6.13
10.00 10.00 10.00 10.00 10.00 10.00 10.00 10.00 10.00 10.00 10.00 10.00 10.00 10.00 10.00 10.00 10.00 10.00 10.00 10.00 10.00 10.00 10.00 10.00 10.00 10.00 10.00 10.00 10.00 10.00 10.00 10.00 10.00 10.00 10.00 10.00 10.00 10.00 10.00 10.00 10.00 10.00 10.00 10.00 10.00 10.00 10.00 10.00 10.00 10.00 10.00 10.00 10.00 10.00 10.00 10.00 10.00 10.00 10.00 10.00 10.00 10.00 10.00 10.00 10.00 10.00 10.00 10.00 10.00 10.00 10.00 10.00 10.00 10.00 10.00 10.00 10.00 10.00 10.00 10.00 10.00 10.00 10.00 10.00 10.00 10.00 10.00 10.00 10.00 10.00 10.00 10.00 10.00 10.00 10.00 10.00 10.00 10.00 10.00 10.00 10.00 10.00 10.00 10.00 10.00 10.00 10.00 10.00 10.00 10.00 10.00 10.00 10.00 10.00 10.00 10.00 10.00 10.00 10.00 10.00 10.00 10.00 10.00 10.00 10.00 10.00 10.00 10.00 10.00 9.99 9.95 9.92 9.91 9.92 9.93 9.95 9.98 10.00 10.00 10.00 10.00 10.00 10.00 10.00 10.00 10.00 10.00 10.00 10.00 10.00 10.00 10.00 9.98 9.95 9.91 9.86 9.80 9.74 9.68 9.62 9.56 9.52 9.48 9.45 9.44 9.43 9.43 9.43 9.42 9.42 9.40 9.39 9.38 9.37 9.35 9.33 9.31 9.28 9.26 9.23 9.22 9.20 9.19 9.18 9.17 9.16 9.15 9.14 9.13 9.11 9.09 9.06 9.03 8.99 8.95 8.90 8.86 8.83 8.79 8.76 8.73 8.70 8.68 8.67 8.66 8.66 8.66 8.66 8.66 8.65 8.64 8.62 8.60 8.58 8.55 8.53 8.50 8.47 8.45 8.42 8.39 8.36 8.33 8.30 8.27 8.23 8.20 8.16 8.13 8.09 8.04 8.00 7.95 7.91 7.87 7.83 7.79 7.76 7.73 7.72 7.71 7.70 7.70 7.69 7.69 7.67 7.65 7.63 7.60 7.57 7.53 7.50 7.48 7.45 7.44 7.42 7.42 7.42 7.42 7.42 7.43 7.45 7.47 7.49 7.51 7.54 7.57 7.60 7.62 7.63 7.63 7.62 7.60 7.57 7.53 7.49 7.43 7.38 7.33 7.29 7.26 7.24 7.24 7.25 7.27 7.30 7.33 7.36 7.40 7.42 7.45 7.47 7.48 7.49 7.48 7.47 7.45 7.42 7.40 7.37 7.35 7.33 7.31 7.29 7.28 7.28 7.27 7.27 7.27 7.26 7.26 7.24 7.23 7.20 7.17 7.14 7.09 7.04 6.99 6.92 6.86 6.80 6.74 6.69 6.65 6.62 6.60 6.60 6.61 6.64 6.68 6.73 6.79 6.84 6.89 6.94 6.97 6.98 6.99 6.98 6.96 6.93 6.89 6.84 6.80 6.75 6.71 6.67 6.64 6.62 6.60 6.60 6.60 6.60 6.60 6.61 6.62 6.62 6.62 6.61 6.61 6.60 6.60 6.60 6.60 6.61 6.62 6.64 6.65 6.67 6.68 6.69 6.70 6.71 6.73 6.74 6.75 6.76 6.76 6.76 6.75 6.74 6.73 6.70 6.68 6.65 6.62 6.59 6.57 6.54 6.50 6.47 6.44 6.40 6.37 6.34 6.32 6.29 6.28 6.26 6.25 6.24 6.24 6.24 6.25 6.26 6.27 6.28 6.29 6.29 6.29 6.28 6.26 6.24 6.22 6.19 6.16 6.14 6.11 6.10 6.08 6.08 6.08 6.08
10.00 10.00 10.00 10.00 10.00 10.00 10.00 10.00 10.00 10.00 10.00 10.00 10.00 10.00 10.00 10.00 10.00 10.00 10.00 10.00 10.00 10.00 10.00 10.00 10.00 10.00 10.00 10.00 10.00 10.00 10.00 10.00 10.00 10.00 10.00 10.00 10.00 10.00 10.00 10.00 10.00 10.00 10.00 10.00 10.00 10.00 10.00 10.00 10.00 10.00 10.00 10.00 10.00 10.00 10.00 10.00 10.00 10.00 10.00 10.00 10.00 10.00 10.00 10.00 10.00 10.00 10.00 10.00 10.00 10.00 10.00 10.00 10.00 10.00 10.00 10.00 10.00 10.00 10.00 10.00 10.00 10.00 10.00 10.00 10.00 10.00 10.00 10.00 10.00 10.00 10.00 10.00 10.00 10.00 10.00 10.00 10.00 10.00 10.00 10.00 10.00 10.00 10.00 10.00 10.00 10.00 10.00 10.00 10.00 10.00 10.00 10.00 10.00 10.00 10.00 10.00 10.00 10.00 10.00 10.00 10.00 10.00 10.00 10.00 10.00 9.97 9.90 9.83 9.76 9.71 9.66 9.64 9.63 9.64 9.65 9.68 9.72 9.76 9.81 9.86 9.90 9.92 9.94 9.94 9.93 9.91 9.90 9.88 9.87 9.86 9.84 9.82 9.79 9.76 9.72 9.67 9.62 9.56 9.50 9.44 9.39 9.34 9.30 9.27 9.25 9.24 9.24 9.24 9.23 9.23 9.23 9.23 9.23 9.22 9.22 9.20 9.18 9.16 9.13 9.10 9.07 9.05 9.03 9.01 9.00 8.98 8.97 8.95 8.93 8.91 8.89 8.86 8.83 8.78 8.74 8.70 8.66 8.62 8.59 8.55 8.52 8.49 8.47 8.46 8.46 8.46 8.47 8.48 8.48 8.48 8.48 8.47 8.45 8.43 8.41 8.38 8.35 8.32 8.29 8.26 8.23 8.20 8.17 8.14 8.11 8.08 8.05 8.01 7.98 7.94 7.91 7.87 7.82 7.78 7.74 7.70 7.67 7.63 7.61 7.59 7.59 7.58 7.58 7.58 7.57 7.55 7.53 7.51 7.47 7.44 7.40 7.37 7.34 7.31 7.30 7.28 7.28 7.28 7.28 7.28 7.29 7.30 7.31 7.32 7.34 7.36 7.38 7.40 7.41 7.41 7.41 7.40 7.38 7.35 7.31 7.27 7.23 7.18 7.14 7.11 7.09 7.08 7.08 7.10 7.12 7.15 7.17 7.20 7.23 7.26 7.28 7.30 7.31 7.32 7.32 7.32 7.31 7.30 7.28 7.27 7.25 7.23 7.22 7.20 7.19 7.17 7.16 7.16 7.15 7.14 7.13 7.12 7.10 7.09 7.06 7.04 7.00 6.96 6.92 6.87 6.81 6.75 6.70 6.64 6.60 6.56 6.53 6.52 6.52 6.54 6.56 6.60 6.64 6.69 6.73 6.77 6.81 6.83 6.84 6.84 6.84 6.82 6.79 6.76 6.72 6.68 6.65 6.61 6.58 6.55 6.53 6.52 6.51 6.50 6.50 6.50 6.50 6.51 6.51 6.51 6.51 6.50 6.51 6.51 6.52 6.54 6.55 6.57 6.58 6.60 6.61 6.62 6.62 6.63 6.64 6.64 6.65 6.65 6.65 6.65 6.65 6.64 6.62 6.60 6.58 6.56 6.54 6.51 6.49 6.47 6.44 6.42 6.39 6.36 6.33 6.30 6.27 6.25 6.22 6.20 6.19 6.18 6.17 6.17 6.17 6.18 6.19 6.20 6.21 6.21 6.22 6.21 6.20 6.18 6.16 6.14 6.11 6.08 6.06 6.04 6.02 6.01 6.01 6.01
10.00 10.00 10.00 10.00 10.00 10.00 10.00 10.00 10.00 10.00 10.00 10.00 10.00 10.00 10.00 10.00 10.00 10.00 10.00 10.00 10.00 10.00 10.00 10.00 10.00 10.00 10.00 10.00 10.00 10.00 10.00 10.00 10.00 10.00 10.00 10.00 10.00 10.00 10.00 10.00 10.00 10.00 10.00 10.00 10.00 10.00 10.00 10.00 10.00 10.00 10.00 10.00 10.00 10.00 10.00 10.00 10.00 10.00 10.00 10.00 10.00 10.00 10.00 10.00 10.00 10.00 10.00 10.00 10.00 10.00 10.00 10.00 10.00 10.00 10.00 10.00 10.00 10.00 10.00 10.00 10.00 10.00 10.00 10.00 10.00 10.00 10.00 10.00 10.00 10.00 10.00 10.00 10.00 10.00 10.00 10.00 10.00 10.00 10.00 10.00 10.00 10.00 10.00 9.95 9.90 9.86 9.83 9.81 9.80 9.79 9.78 9.78 9.78 9.78 9.78 9.78 9.79 9.80 9.81 9.83 9.84 9.84 9.83 9.81 9.77 9.72 9.65 9.58 9.52 9.47 9.43 9.40 9.40 9.41 9.43 9.46 9.51 9.56 9.62 9.68 9.73 9.77 9.80 9.80 9.79 9.78 9.76 9.73 9.71 9.69 9.67 9.64 9.61 9.57 9.53 9.49 9.43 9.38 9.32 9.27 9.22 9.17 9.14 9.11 9.09 9.08 9.07 9.07 9.08 9.08 9.09 9.10 9.10 9.11 9.11 9.10 9.08 9.05 9.02 8.98 8.95 8.92 8.89 8.86 8.83 8.81 8.79 8.77 8.74 8.72 8.69 8.66 8.62 8.58 8.53 8.49 8.45 8.41 8.38 8.35 8.32 8.29 8.27 8.26 8.26 8.27 8.28 8.29 8.30 8.31 8.31 8.31 8.30 8.28 8.25 8.23 8.19 8.16 8.12 8.08 8.05 8.02 7.99 7.96 7.93 7.91 7.88 7.86 7.83 7.80 7.77 7.73 7.69 7.65 7.62 7.58 7.54 7.51 7.49 7.47 7.46 7.46 7.46 7.45 7.45 7.43 7.41 7.38 7.35 7.31 7.28 7.24 7.21 7.19 7.17 7.16 7.15 7.15 7.15 7.16 7.16 7.17 7.17 7.18 7.19 7.20 7.21 7.22 7.23 7.22 7.22 7.20 7.18 7.15 7.11 7.08 7.04 7.00 6.97 6.95 6.93 6.93 6.94 6.96 6.98 7.01 7.04 7.06 7.08 7.11 7.12 7.14 7.16 7.17 7.18 7.18 7.19 7.19 7.19 7.19 7.18 7.17 7.15 7.13 7.11 7.10 7.08 7.06 7.05 7.03 7.02 7.01 6.99 6.98 6.96 6.94 6.92 6.89 6.85 6.81 6.76 6.71 6.66 6.60 6.56 6.51 6.48 6.46 6.45 6.45 6.47 6.49 6.52 6.56 6.59 6.63 6.66 6.69 6.71 6.72 6.72 6.72 6.70 6.68 6.65 6.62 6.59 6.55 6.52 6.49 6.47 6.45 6.43 6.42 6.41 6.40 6.40 6.40 6.40 6.40 6.40 6.40 6.41 6.42 6.43 6.45 6.46 6.48 6.50 6.51 6.52 6.53 6.53 6.53 6.53 6.53 6.54 6.54 6.54 6.53 6.53 6.52 6.51 6.49 6.48 6.46 6.45 6.43 6.41 6.39 6.37 6.35 6.32 6.29 6.27 6.24 6.21 6.18 6.16 6.13 6.11 6.10 6.09 6.09 6.09 6.10 6.10 6.11 6.12 6.13 6.13 6.13 6.12 6.11 6.09 6.07 6.04 6.02 5.99 5.97 5.95 5.94 5.93 5.93
10.00 10.00 10.00 10.00 10.00 10.00 10.00 10.00 10.00 10.00 10.00 10.00 10.00 10.00 10.00 10.00 10.00 10.00 10.00 10.00 10.00 10.00 10.00 10.00 10.00 10.00 10.00 10.00 10.00 10.00 10.00 10.00 10.00 10.00 10.00 10.00 10.00 10.00 10.00 10.00 10.00 10.00 10.00 10.00 10.00 10.00 10.00 10.00 10.00 10.00 10.00 10.00 10.00 10.00 10.00 10.00 10.00 10.00 10.00 10.00 10.00 10.00 10.00 10.00 10.00 10.00 10.00 10.00 10.00 10.00 10.00 10.00 10.00 10.00 10.00 10.00 10.00 10.00 10.00 10.00 10.00 10.00 10.00 10.00 10.00 10.00 10.00 10.00 10.00 10.00 10.00 10.00 10.00 10.00 10.00 10.00 10.00 10.00 10.00 9.95 9.90 9.84 9.79 9.74 9.69 9.66 9.63 9.60 9.58 9.56 9.54 9.53 9.51 9.50 9.50 9.50 9.51 9.52 9.54 9.56 9.57 9.58 9.58 9.56 9.53 9.49 9.44 9.38 9.32 9.28 9.24 9.22 9.21 9.22 9.25 9.29 9.34 9.40 9.47 9.54 9.59 9.64 9.67 9.68 9.67 9.64 9.61 9.58 9.55 9.52 9.49 9.46 9.43 9.39 9.35 9.30 9.25 9.20 9.15 9.10 9.05 9.01 8.98 8.95 8.94 8.93 8.93 8.93 8.94 8.96 8.97 8.99 9.00 9.01 9.01 9.00 8.98 8.95 8.91 8.87 8.83 8.78 8.74 8.71 8.67 8.64 8.61 8.58 8.55 8.52 8.48 8.45 8.41 8.37 8.32 8.28 8.24 8.21 8.18 8.15 8.12 8.10 8.08 8.07 8.07 8.08 8.09 8.11 8.13 8.14 8.15 8.15 8.14 8.12 8.09 8.06 8.02 7.98 7.94 7.90 7.86 7.82 7.79 7.77 7.75 7.73 7.71 7.69 7.67 7.64 7.62 7.59 7.55 7.52 7.48 7.45 7.41 7.38 7.36 7.35 7.34 7.34 7.33 7.33 7.32 7.31 7.29 7.26 7.22 7.19 7.15 7.12 7.09 7.07 7.05 7.04 7.04 7.04 7.05 7.05 7.05 7.06 7.06 7.06 7.07 7.07 7.07 7.07 7.07 7.06 7.05 7.03 7.00 6.97 6.94 6.91 6.87 6.84 6.82 6.81 6.80 6.80 6.82 6.84 6.86 6.89 6.92 6.94 6.96 6.97 6.99 7.01 7.02 7.04 7.05 7.07 7.08 7.09 7.11 7.12 7.12 7.11 7.10 7.08 7.06 7.03 7.01 6.99 6.96 6.94 6.93 6.91 6.90 6.88 6.87 6.85 6.83 6.81 6.78 6.75 6.71 6.66 6.62 6.57 6.52 6.47 6.44 6.41 6.39 6.38 6.39 6.40 6.42 6.44 6.47 6.50 6.53 6.56 6.58 6.60 6.61 6.62 6.61 6.60 6.58 6.56 6.53 6.50 6.47 6.44 6.41 6.38 6.36 6.34 6.32 6.31 6.30 6.30 6.30 6.30 6.30 6.31 6.31 6.32 6.34 6.35 6.37 6.39 6.41 6.42 6.43 6.43 6.43 6.43 6.42 6.42 6.42 6.41 6.41 6.41 6.40 6.40 6.39 6.38 6.37 6.36 6.35 6.34 6.33 6.32 6.30 6.28 6.25 6.22 6.19 6.17 6.13 6.10 6.08 6.05 6.03 6.01 6.00 6.00 6.00 6.00 6.01 6.02 6.03 6.04 6.04 6.04 6.03 6.02 6.01 5.98 5.96 5.94 5.92 5.90 5.88 5.87 5.86 5.85
10.00 10.00 10.00 10.00 10.00 10.00 10.00 10.00 10.00 10.00 10.00 10.00 10.00 10.00 10.00 10.00 10.00 10.00 10.00 10.00 10.00 10.00 10.00 10.00 10.00 10.00 10.00 10.00 10.00 10.00 10.00 10.00 10.00 10.00 10.00 10.00 10.00 10.00 10.00 10.00 10.00 10.00 10.00 10.00 10.00 10.00 10.00 10.00 10.00 10.00 10.00 10.00 10.00 10.00 10.00 10.00 10.00 10.00 10.00 10.00 10.00 10.00 10.00 10.00 10.00 10.00 10.00 10.00 10.00 10.00 10.00 10.00 10.00 10.00 10.00 10.00 10.00 10.00 10.00 10.00 10.00 10.00 10.00 10.00 10.00 10.00 10.00 10.00 10.00 10.00 10.00 10.00 10.00 9.97 9.91 9.87 9.82 9.78 9.74 9.71 9.67 9.63 9.59 9.55 9.51 9.47 9.44 9.41 9.37 9.34 9.31 9.29 9.26 9.24 9.23 9.24 9.24 9.26 9.28 9.30 9.32 9.34 9.34 9.34 9.32 9.30 9.26 9.21 9.17 9.13 9.09 9.07 9.07 9.09 9.11 9.15 9.21 9.27 9.34 9.41 9.47 9.51 9.54 9.54 9.53 9.50 9.46 9.42 9.38 9.34 9.31 9.27 9.23 9.19 9.15 9.11 9.06 9.01 8.96 8.91 8.87 8.84 8.81 8.79 8.79 8.78 8.79 8.80 8.82 8.84 8.86 8.88 8.90 8.91 8.91 8.90 8.88 8.84 8.80 8.75 8.70 8.65 8.60 8.55 8.51 8.46 8.42 8.39 8.35 8.31 8.27 8.24 8.20 8.16 8.12 8.08 8.05 8.01 7.98 7.96 7.93 7.91 7.90 7.90 7.90 7.91 7.93 7.95 7.97 7.98 8.00 8.00 7.99 7.96 7.93 7.89 7.84 7.79 7.74 7.70 7.66 7.63 7.60 7.57 7.56 7.54 7.53 7.51 7.50 7.48 7.46 7.43 7.40 7.37 7.34 7.31 7.28 7.25 7.23 7.22 7.21 7.21 7.21 7.21 7.20 7.18 7.16 7.14 7.10 7.07 7.03 7.00 6.98 6.95 6.94 6.93 6.94 6.94 6.95 6.95 6.96 6.96 6.96 6.96 6.96 6.96 6.96 6.95 6.94 6.93 6.91 6.89 6.86 6.83 6.80 6.77 6.74 6.72 6.70 6.69 6.69 6.70 6.72 6.74 6.76 6.79 6.81 6.83 6.85 6.86 6.88 6.89 6.91 6.92 6.94 6.96 6.98 7.01 7.03 7.05 7.06 7.06 7.05 7.03 7.01 6.98 6.95 6.92 6.89 6.86 6.84 6.82 6.81 6.79 6.78 6.76 6.75 6.73 6.71 6.68 6.65 6.61 6.57 6.52 6.48 6.44 6.40 6.37 6.35 6.33 6.32 6.33 6.33 6.35 6.37 6.39 6.41 6.44 6.46 6.49 6.51 6.52 6.53 6.52 6.51 6.50 6.47 6.45 6.42 6.39 6.36 6.32 6.30 6.27 6.25 6.23 6.22 6.22 6.22 6.22 6.22 6.22 6.23 6.24 6.25 6.27 6.28 6.30 6.32 6.33 6.33 6.33 6.33 6.32 6.31 6.30 6.29 6.29 6.28 6.28 6.27 6.27 6.26 6.26 6.26 6.26 6.26 6.26 6.25 6.24 6.22 6.20 6.18 6.15 6.12 6.09 6.05 6.02 5.99 5.97 5.94 5.92 5.91 5.91 5.91 5.91 5.92 5.93 5.93 5.94 5.94 5.94 5.93 5.92 5.91 5.89 5.87 5.85 5.84 5.82 5.80 5.79 5.78 5.78
10.00 10.00 10.00 10.00 10.00 10.00 10.00 10.00 10.00 10.00 10.00 10.00 10.00 10.00 10.00 10.00 10.00 10.00 10.00 10.00 10.00 10.00 10.00 10.00 10.00 10.00 10.00 10.00 10.00 10.00 10.00 10.00 10.00 10.00 10.00 10.00 10.00 10.00 10.00 10.00 10.00 10.00 10.00 10.00 10.00 10.00 10.00 10.00 10.00 10.00 10.00 10.00 10.00 10.00 10.00 10.00 10.00 10.00 10.00 10.00 10.00 10.00 10.00 10.00 10.00 10.00 10.00 10.00 10.00 10.00 10.00 10.00 10.00 10.00 10.00 10.00 10.00 10.00 10.00 10.00 10.00 10.00 10.00 10.00 10.00 10.00 10.00 10.00 9.97 9.90 9.84 9.78 9.72 9.67 9.62 9.58 9.55 9.52 9.50 9.48 9.46 9.44 9.41 9.37 9.34 9.30 9.26 9.22 9.18 9.13 9.09 9.06 9.03 9.00 8.99 8.99 9.00 9.02 9.04 9.07 9.09 9.11 9.13 9.14 9.14 9.12 9.10 9.07 9.04 9.01 8.98 8.96 8.96 8.98 9.00 9.04 9.09 9.15 9.22 9.28 9.33 9.37 9.39 9.39 9.36 9.32 9.28 9.23 9.18 9.14 9.10 9.06 9.02 8.98 8.94 8.89 8.84 8.80 8.75 8.71 8.68 8.66 8.64 8.63 8.63 8.64 8.65 8.68 8.70 8.73 8.75 8.78 8.80 8.81 8.81 8.79 8.77 8.73 8.69 8.63 8.57 8.51 8.45 8.39 8.34 8.29 8.24 8.19 8.14 8.10 8.06 8.03 7.99 7.95 7.92 7.89 7.86 7.83 7.80 7.78 7.76 7.75 7.74 7.74 7.74 7.75 7.77 7.80 7.82 7.84 7.85 7.85 7.83 7.80 7.76 7.72 7.66 7.61 7.55 7.50 7.46 7.43 7.40 7.38 7.37 7.35 7.34 7.33 7.32 7.31 7.29 7.27 7.25 7.22 7.19 7.17 7.14 7.12 7.10 7.09 7.09 7.09 7.09 7.09 7.08 7.06 7.04 7.02 6.99 6.95 6.92 6.89 6.87 6.85 6.83 6.83 6.83 6.84 6.85 6.86 6.87 6.87 6.88 6.88 6.87 6.87 6.86 6.85 6.84 6.82 6.80 6.77 6.74 6.71 6.68 6.66 6.63 6.61 6.60 6.59 6.60 6.61 6.63 6.65 6.68 6.70 6.73 6.74 6.76 6.77 6.78 6.79 6.81 6.83 6.85 6.87 6.90 6.93 6.96 6.98 7.00 7.00 7.00 6.98 6.95 6.92 6.89 6.85 6.82 6.79 6.76 6.74 6.72 6.70 6.69 6.67 6.66 6.64 6.63 6.60 6.58 6.55 6.51 6.48 6.44 6.40 6.36 6.33 6.31 6.28 6.27 6.26 6.26 6.26 6.27 6.28 6.30 6.32 6.35 6.38 6.40 6.42 6.44 6.45 6.44 6.43 6.42 6.40 6.37 6.34 6.31 6.28 6.24 6.22 6.19 6.17 6.16 6.15 6.15 6.14 6.14 6.15 6.15 6.16 6.17 6.19 6.20 6.22 6.23 6.24 6.24 6.23 6.22 6.21 6.19 6.18 6.17 6.15 6.14 6.14 6.14 6.13 6.14 6.14 6.15 6.16 6.17 6.17 6.17 6.16 6.15 6.13 6.10 6.07 6.04 6.01 5.98 5.94 5.91 5.89 5.86 5.84 5.83 5.82 5.82 5.82 5.82 5.83 5.83 5.83 5.83 5.83 5.83 5.82 5.81 5.80 5.78 5.77 5.76 5.75 5.74 5.73 5.72 5.72
10.00 10.00 10.00 10.00 10.00 10.00 10.00 10.00 10.00 10.00 10.00 10.00 10.00 10.00 10.00 10.00 10.00 10.00 10.00 10.00 10.00 10.00 10.00 10.00 10.00 10.00 10.00 10.00 10.00 10.00 10.00 10.00 10.00 10.00 10.00 10.00 10.00 10.00 10.00 10.00 10.00 10.00 10.00 10.00 10.00 10.00 10.00 10.00 10.00 10.00 10.00 10.00 10.00 10.00 10.00 10.00 10.00 10.00 10.00 10.00 10.00 10.00 10.00 10.00 10.00 10.00 10.00 10.00 10.00 10.00 10.00 10.00 10.00 10.00 10.00 10.00 10.00 10.00 10.00 10.00 10.00 10.00 10.00 10.00 9.97 9.91 9.85 9.78 9.71 9.63 9.57 9.50 9.44 9.40 9.36 9.33 9.31 9.29 9.28 9.27 9.27 9.25 9.23 9.20 9.16 9.12 9.08 9.03 8.98 8.93 8.88 8.84 8.80 8.78 8.76 8.76 8.78 8.80 8.82 8.85 8.88 8.91 8.93 8.95 8.97 8.97 8.96 8.95 8.93 8.90 8.88 8.87 8.87 8.88 8.90 8.93 8.98 9.03 9.08 9.13 9.18 9.20 9.21 9.20 9.17 9.12 9.06 9.01 8.96 8.91 8.87 8.82 8.78 8.74 8.70 8.66 8.62 8.58 8.54 8.51 8.49 8.47 8.47 8.47 8.48 8.49 8.52 8.54 8.57 8.60 8.63 8.66 8.67 8.68 8.68 8.67 8.64 8.61 8.56 8.50 8.44 8.37 8.30 8.23 8.16 8.10 8.04 7.99 7.94 7.89 7.85 7.82 7.78 7.75 7.72 7.70 7.67 7.65 7.63 7.61 7.60 7.59 7.58 7.59 7.60 7.61 7.63 7.66 7.68 7.70 7.71 7.70 7.68 7.65 7.60 7.55 7.49 7.43 7.37 7.32 7.28 7.25 7.22 7.20 7.19 7.18 7.17 7.16 7.15 7.14 7.13 7.11 7.09 7.07 7.05 7.03 7.01 7.00 6.99 6.98 6.98 6.98 6.98 6.97 6.96 6.95 6.93 6.91 6.88 6.85 6.82 6.79 6.76 6.74 6.73 6.73 6.73 6.74 6.75 6.77 6.78 6.79 6.79 6.79 6.79 6.79 6.78 6.77 6.75 6.73 6.71 6.68 6.65 6.62 6.59 6.57 6.54 6.53 6.52 6.52 6.52 6.54 6.56 6.58 6.61 6.63 6.65 6.67 6.68 6.69 6.70 6.71 6.72 6.74 6.76 6.78 6.81 6.84 6.88 6.91 6.93 6.93 6.93 6.91 6.88 6.85 6.82 6.78 6.74 6.71 6.68 6.65 6.63 6.61 6.60 6.58 6.57 6.56 6.54 6.52 6.50 6.47 6.45 6.42 6.39 6.35 6.32 6.29 6.26 6.24 6.22 6.21 6.19 6.19 6.18 6.19 6.20 6.22 6.24 6.27 6.30 6.32 6.35 6.36 6.37 6.37 6.36 6.34 6.32 6.30 6.27 6.23 6.20 6.17 6.14 6.12 6.11 6.09 6.09 6.08 6.08 6.08 6.09 6.09 6.10 6.11 6.13 6.14 6.15 6.15 6.15 6.14 6.12 6.11 6.08 6.06 6.04 6.02 6.01 6.01 6.00 6.01 6.02 6.03 6.05 6.06 6.08 6.09 6.09 6.09 6.07 6.05 6.03 6.00 5.97 5.93 5.90 5.87 5.84 5.81 5.79 5.77 5.75 5.74 5.73 5.73 5.73 5.72 5.72 5.72 5.72 5.72 5.72 5.71 5.71 5.70 5.70 5.69 5.69 5.68 5.68 5.67 5.67 5.67
10.00 10.00 10.00 10.00 10.00 10.00 10.00 10.00 10.00 10.00 10.00 10.00 10.00 10.00 10.00 10.00 10.00 10.00 10.00 10.00 10.00 10.00 10.00 10.00 10.00 10.00 10.00 10.00 10.00 10.00 10.00 10.00 10.00 10.00 10.00 10.00 10.00 10.00 10.00 10.00 10.00 10.00 10.00 10.00 10.00 10.00 10.00 10.00 10.00 10.00 10.00 10.00 10.00 10.00 10.00 10.00 10.00 10.00 10.00 10.00 10.00 10.00 10.00 10.00 10.00 10.00 9.96 9.87 9.80 9.74 9.70 9.69 9.69 9.70 9.72 9.75 9.78 9.81 9.83 9.85 9.85 9.85 9.83 9.80 9.76 9.70 9.62 9.55 9.47 9.39 9.32 9.26 9.20 9.16 9.13 9.10 9.09 9.08 9.08 9.08 9.08 9.07 9.05 9.02 8.98 8.94 8.90 8.85 8.79 8.74 8.69 8.64 8.61 8.58 8.57 8.57 8.58 8.60 8.62 8.66 8.69 8.72 8.76 8.79 8.81 8.83 8.83 8.83 8.82 8.81 8.79 8.78 8.78 8.78 8.79 8.82 8.84 8.88 8.92 8.96 8.98 9.00 8.99 8.97 8.93 8.88 8.82 8.76 8.71 8.66 8.61 8.57 8.53 8.50 8.46 8.42 8.39 8.35 8.33 8.30 8.29 8.29 8.29 8.30 8.32 8.34 8.37 8.40 8.43 8.47 8.49 8.52 8.54 8.55 8.55 8.53 8.51 8.47 8.42 8.36 8.29 8.22 8.14 8.06 7.99 7.91 7.85 7.79 7.73 7.69 7.65 7.61 7.59 7.56 7.54 7.52 7.50 7.48 7.47 7.46 7.45 7.44 7.44 7.45 7.46 7.48 7.51 7.53 7.55 7.57 7.57 7.56 7.54 7.50 7.44 7.38 7.32 7.26 7.20 7.15 7.11 7.08 7.06 7.04 7.03 7.02 7.01 7.00 7.00 6.99 6.98 6.96 6.95 6.93 6.92 6.90 6.89 6.88 6.88 6.87 6.87 6.88 6.87 6.87 6.86 6.85 6.83 6.80 6.78 6.75 6.72 6.69 6.66 6.65 6.63 6.63 6.63 6.64 6.66 6.67 6.69 6.70 6.71 6.71 6.71 6.70 6.70 6.69 6.67 6.65 6.63 6.60 6.57 6.54 6.51 6.49 6.47 6.46 6.45 6.45 6.46 6.47 6.49 6.51 6.54 6.56 6.58 6.59 6.60 6.61 6.62 6.63 6.64 6.66 6.68 6.70 6.73 6.76 6.79 6.82 6.83 6.84 6.84 6.82 6.80 6.77 6.73 6.69 6.66 6.62 6.59 6.56 6.54 6.52 6.51 6.49 6.48 6.47 6.45 6.43 6.41 6.39 6.37 6.35 6.32 6.30 6.27 6.24 6.22 6.19 6.17 6.15 6.13 6.11 6.10 6.10 6.10 6.12 6.14 6.16 6.19 6.22 6.25 6.28 6.29 6.30 6.30 6.29 6.28 6.25 6.23 6.20 6.16 6.13 6.11 6.08 6.06 6.05 6.04 6.03 6.03 6.03 6.03 6.03 6.04 6.05 6.06 6.07 6.07 6.07 6.06 6.05 6.03 6.01 5.98 5.95 5.92 5.90 5.89 5.88 5.88 5.89 5.90 5.92 5.95 5.97 5.99 6.01 6.02 6.01 6.00 5.98 5.96 5.93 5.90 5.86 5.83 5.80 5.77 5.75 5.72 5.70 5.68 5.66 5.65 5.64 5.63 5.62 5.62 5.62 5.61 5.61 5.61 5.61 5.62 5.62 5.62 5.62 5.62 5.62 5.62 5.62 5.62 5.62
10.00 10.00 10.00 10.00 10.00 10.00 10.00 10.00 10.00 10.00 10.00 10.00 10.00 10.00 10.00 10.00 10.00 10.00 10.00 10.00 10.00 10.00 10.00 10.00 10.00 10.00 10.00 10.00 10.00 10.00 10.00 10.00 10.00 10.00 10.00 10.00 10.00 10.00 10.00 10.00 10.00 10.00 10.00 10.00 10.00 10.00 10.00 10.00 10.00 10.00 10.00 10.00 10.00 10.00 10.00 10.00 10.00 10.00 10.00 10.00 10.00 10.00 10.00 9.94 9.84 9.74 9.65 9.57 9.50 9.45 9.41 9.40 9.41 9.43 9.46 9.50 9.54 9.58 9.62 9.65 9.67 9.67 9.66 9.63 9.58 9.51 9.44 9.36 9.27 9.19 9.12 9.06 9.00 8.96 8.93 8.92 8.91 8.90 8.90 8.90 8.90 8.89 8.86 8.83 8.79 8.75 8.71 8.66 8.61 8.55 8.51 8.46 8.43 8.40 8.39 8.39 8.40 8.42 8.45 8.48 8.52 8.55 8.59 8.63 8.66 8.69 8.71 8.71 8.71 8.70 8.69 8.68 8.67 8.66 8.66 8.67 8.68 8.70 8.72 8.74 8.75 8.76 8.74 8.72 8.67 8.62 8.57 8.51 8.45 8.40 8.36 8.32 8.28 8.25 8.22 8.19 8.16 8.14 8.12 8.11 8.11 8.11 8.12 8.14 8.16 8.19 8.22 8.25 8.28 8.32 8.34 8.37 8.39 8.40 8.40 8.38 8.36 8.32 8.27 8.21 8.14 8.06 7.97 7.89 7.80 7.73 7.65 7.59 7.53 7.49 7.45 7.42 7.40 7.38 7.36 7.35 7.34 7.33 7.32 7.31 7.31 7.31 7.31 7.32 7.34 7.36 7.39 7.41 7.43 7.44 7.44 7.43 7.39 7.35 7.29 7.23 7.17 7.10 7.05 7.00 6.96 6.94 6.92 6.90 6.89 6.88 6.88 6.87 6.86 6.85 6.84 6.83 6.82 6.81 6.80 6.79 6.79 6.78 6.78 6.79 6.79 6.79 6.79 6.78 6.77 6.75 6.73 6.71 6.68 6.66 6.63 6.60 6.58 6.56 6.54 6.54 6.54 6.55 6.56 6.58 6.59 6.61 6.62 6.62 6.62 6.62 6.61 6.60 6.59 6.57 6.55 6.52 6.49 6.47 6.44 6.42 6.41 6.40 6.39 6.39 6.40 6.41 6.43 6.44 6.47 6.48 6.50 6.51 6.52 6.53 6.54 6.55 6.56 6.57 6.59 6.61 6.64 6.66 6.69 6.71 6.73 6.74 6.73 6.72 6.70 6.67 6.64 6.61 6.57 6.54 6.51 6.48 6.46 6.44 6.42 6.41 6.39 6.38 6.36 6.35 6.33 6.31 6.29 6.27 6.25 6.23 6.21 6.18 6.16 6.14 6.11 6.09 6.07 6.04 6.03 6.02 6.01 6.02 6.03 6.06 6.09 6.12 6.15 6.18 6.21 6.22 6.23 6.23 6.22 6.21 6.19 6.16 6.13 6.10 6.07 6.05 6.03 6.01 6.00 5.99 5.98 5.97 5.97 5.97 5.98 5.98 5.99 5.99 6.00 5.99 5.98 5.96 5.94 5.91 5.88 5.84 5.81 5.79 5.77 5.76 5.77 5.78 5.80 5.82 5.86 5.89 5.91 5.93 5.94 5.94 5.93 5.91 5.89 5.86 5.83 5.80 5.77 5.74 5.71 5.68 5.66 5.63 5.61 5.59 5.57 5.55 5.54 5.53 5.52 5.51 5.51 5.51 5.52 5.52 5.53 5.53 5.54 5.55 5.56 5.57 5.58 5.58 5.59 5.59
10.00 10.00 10.00 10.00 10.00 10.00 10.00 10.00 10.00 10.00 10.00 10.00 10.00 10.00 10.00 10.00 10.00 10.00 10.00 10.00 10.00 10.00 10.00 10.00 10.00 10.00 10.00 10.00 10.00 10.00 10.00 10.00 10.00 10.00 10.00 10.00 10.00 10.00 10.00 10.00 10.00 10.00 10.00 10.00 10.00 10.00 10.00 10.00 10.00 10.00 10.00 10.00 10.00 10.00 10.00 10.00 10.00 10.00 10.00 10.00 9.93 9.85 9.76 9.67 9.58 9.49 9.40 9.32 9.26 9.21 9.18 9.17 9.19 9.21 9.25 9.30 9.35 9.41 9.45 9.49 9.51 9.52 9.51 9.48 9.43 9.36 9.28 9.20 9.11 9.03 8.96 8.90 8.84 8.80 8.78 8.76 8.75 8.74 8.74 8.74 8.73 8.71 8.68 8.65 8.61 8.57 8.52 8.48 8.43 8.38 8.34 8.30 8.27 8.25 8.23 8.24 8.25 8.27 8.29 8.32 8.36 8.40 8.44 8.48 8.52 8.55 8.58 8.59 8.59 8.59 8.57 8.55 8.54 8.52 8.50 8.50 8.49 8.50 8.50 8.51 8.51 8.50 8.48 8.45 8.41 8.36 8.30 8.25 8.20 8.15 8.11 8.07 8.03 8.01 7.99 7.97 7.95 7.94 7.93 7.93 7.93 7.95 7.96 7.98 8.01 8.04 8.06 8.10 8.13 8.16 8.19 8.21 8.23 8.24 8.24 8.23 8.21 8.17 8.12 8.05 7.98 7.89 7.80 7.71 7.62 7.54 7.46 7.40 7.34 7.30 7.26 7.24 7.22 7.21 7.20 7.19 7.19 7.18 7.18 7.18 7.18 7.18 7.19 7.20 7.22 7.25 7.27 7.29 7.31 7.32 7.31 7.29 7.25 7.21 7.15 7.09 7.03 6.97 6.92 6.87 6.84 6.81 6.80 6.78 6.77 6.77 6.76 6.75 6.75 6.74 6.73 6.72 6.71 6.71 6.70 6.70 6.70 6.70 6.70 6.71 6.71 6.71 6.71 6.70 6.69 6.67 6.65 6.63 6.60 6.57 6.55 6.52 6.49 6.47 6.46 6.45 6.45 6.46 6.47 6.48 6.49 6.51 6.52 6.52 6.53 6.53 6.52 6.51 6.50 6.48 6.46 6.44 6.42 6.39 6.37 6.36 6.34 6.33 6.33 6.33 6.33 6.34 6.36 6.37 6.39 6.41 6.42 6.43 6.44 6.45 6.46 6.46 6.47 6.49 6.50 6.52 6.54 6.56 6.58 6.60 6.61 6.62 6.62 6.61 6.59 6.57 6.54 6.51 6.48 6.45 6.42 6.39 6.37 6.35 6.34 6.32 6.31 6.29 6.27 6.26 6.24 6.22 6.21 6.19 6.17 6.16 6.14 6.12 6.09 6.07 6.05 6.02 6.00 5.97 5.95 5.93 5.92 5.92 5.93 5.95 5.98 6.01 6.05 6.08 6.11 6.14 6.16 6.16 6.16 6.16 6.14 6.12 6.09 6.06 6.04 6.01 5.99 5.97 5.96 5.94 5.93 5.92 5.92 5.91 5.91 5.91 5.92 5.92 5.92 5.91 5.89 5.87 5.85 5.81 5.78 5.74 5.71 5.68 5.67 5.66 5.67 5.68 5.71 5.74 5.77 5.81 5.83 5.86 5.87 5.87 5.86 5.84 5.81 5.79 5.76 5.73 5.70 5.68 5.65 5.62 5.59 5.57 5.54 5.52 5.49 5.47 5.45 5.43 5.42 5.42 5.41 5.42 5.42 5.43 5.44 5.46 5.47 5.49 5.50 5.52 5.53 5.54 5.55 5.55
10.00 10.00 10.00 10.00 10.00 10.00 10.00 10.00 10.00 10.00 10.00 10.00 10.00 10.00 10.00 10.00 10.00 10.00 10.00 10.00 10.00 10.00 10.00 10.00 10.00 10.00 10.00 10.00 10.00 10.00 10.00 10.00 10.00 10.00 10.00 10.00 10.00 10.00 10.00 10.00 10.00 10.00 10.00 10.00 10.00 10.00 10.00 10.00 10.00 10.00 10.00 10.00 10.00 10.00 10.00 10.00 9.96 9.90 9.83 9.76 9.68 9.61 9.53 9.45 9.36 9.28 9.20 9.13 9.07 9.02 9.00 9.00 9.01 9.05 9.09 9.15 9.21 9.27 9.32 9.36 9.39 9.40 9.39 9.36 9.31 9.24 9.16 9.07 8.98 8.90 8.83 8.77 8.72 8.68 8.65 8.63 8.62 8.61 8.61 8.60 8.58 8.56 8.52 8.48 8.44 8.39 8.35 8.31 8.27 8.22 8.19 8.16 8.13 8.11 8.10 8.09 8.10 8.12 8.14 8.17 8.20 8.24 8.29 8.33 8.37 8.41 8.44 8.46 8.46 8.45 8.43 8.41 8.38 8.35 8.32 8.30 8.28 8.27 8.27 8.26 8.25 8.24 8.22 8.19 8.15 8.10 8.05 7.99 7.94 7.90 7.86 7.82 7.80 7.78 7.76 7.76 7.75 7.75 7.75 7.76 7.78 7.79 7.81 7.84 7.86 7.88 7.91 7.94 7.97 8.00 8.03 8.05 8.07 8.08 8.09 8.08 8.06 8.02 7.97 7.90 7.82 7.73 7.63 7.54 7.45 7.37 7.29 7.23 7.17 7.13 7.10 7.08 7.06 7.05 7.05 7.04 7.04 7.04 7.05 7.05 7.06 7.06 7.07 7.09 7.11 7.13 7.15 7.17 7.18 7.19 7.18 7.15 7.12 7.07 7.02 6.96 6.91 6.85 6.81 6.77 6.74 6.71 6.69 6.68 6.67 6.67 6.66 6.65 6.64 6.64 6.63 6.63 6.62 6.62 6.62 6.62 6.62 6.63 6.63 6.64 6.64 6.64 6.64 6.63 6.61 6.60 6.58 6.55 6.53 6.50 6.47 6.45 6.42 6.40 6.38 6.37 6.37 6.37 6.37 6.38 6.39 6.40 6.41 6.42 6.42 6.42 6.42 6.42 6.40 6.39 6.37 6.35 6.33 6.32 6.30 6.29 6.28 6.27 6.27 6.27 6.27 6.28 6.29 6.30 6.31 6.33 6.34 6.35 6.36 6.36 6.37 6.38 6.39 6.40 6.42 6.43 6.44 6.46 6.47 6.49 6.50 6.50 6.50 6.49 6.47 6.46 6.44 6.41 6.38 6.36 6.33 6.31 6.29 6.27 6.25 6.24 6.22 6.20 6.19 6.17 6.15 6.14 6.12 6.11 6.09 6.08 6.06 6.04 6.02 6.00 5.98 5.95 5.92 5.90 5.87 5.85 5.83 5.82 5.83 5.85 5.87 5.90 5.94 5.98 6.02 6.05 6.07 6.09 6.10 6.10 6.09 6.07 6.05 6.02 5.99 5.97 5.95 5.92 5.91 5.89 5.87 5.86 5.85 5.84 5.84 5.84 5.84 5.84 5.83 5.82 5.80 5.78 5.75 5.72 5.68 5.65 5.62 5.59 5.58 5.57 5.58 5.60 5.63 5.66 5.70 5.73 5.76 5.78 5.79 5.79 5.78 5.76 5.74 5.71 5.69 5.66 5.63 5.61 5.58 5.56 5.53 5.50 5.47 5.45 5.42 5.39 5.37 5.35 5.34 5.33 5.33 5.33 5.34 5.35 5.37 5.39 5.41 5.43 5.45 5.47 5.48 5.50 5.51 5.51
10.00 10.00 10.00 10.00 10.00 10.00 10.00 10.00 10.00 10.00 10.00 10.00 10.00 10.00 10.00 10.00 10.00 10.00 10.00 10.00 10.00 10.00 10.00 10.00 10.00 10.00 10.00 10.00 10.00 10.00 10.00 10.00 10.00 10.00 10.00 10.00 10.00 10.00 10.00 10.00 10.00 10.00 10.00 10.00 10.00 10.00 10.00 10.00 9.99 9.97 9.95 9.92 9.90 9.88 9.84 9.80 9.74 9.68 9.61 9.54 9.47 9.40 9.32 9.25 9.17 9.10 9.02 8.96 8.91 8.87 8.85 8.85 8.87 8.91 8.97 9.03 9.09 9.16 9.22 9.27 9.30 9.31 9.30 9.27 9.21 9.14 9.05 8.97 8.88 8.80 8.72 8.66 8.61 8.57 8.54 8.53 8.51 8.50 8.49 8.47 8.45 8.42 8.38 8.33 8.29 8.24 8.20 8.16 8.12 8.09 8.05 8.03 8.00 7.98 7.97 7.96 7.97 7.98 8.00 8.02 8.05 8.09 8.13 8.18 8.23 8.26 8.29 8.31 8.31 8.30 8.27 8.24 8.20 8.16 8.12 8.09 8.07 8.05 8.04 8.03 8.01 8.00 7.97 7.94 7.90 7.86 7.81 7.76 7.71 7.67 7.63 7.60 7.58 7.56 7.56 7.57 7.57 7.58 7.60 7.62 7.64 7.66 7.68 7.70 7.72 7.74 7.76 7.78 7.81 7.84 7.87 7.89 7.91 7.93 7.94 7.93 7.91 7.87 7.81 7.74 7.66 7.57 7.47 7.38 7.29 7.22 7.14 7.08 7.03 6.99 6.96 6.93 6.92 6.91 6.91 6.91 6.91 6.91 6.92 6.93 6.94 6.95 6.96 6.97 6.99 7.01 7.03 7.04 7.05 7.05 7.04 7.02 6.98 6.94 6.89 6.85 6.80 6.75 6.71 6.68 6.65 6.63 6.61 6.60 6.59 6.58 6.57 6.57 6.56 6.55 6.55 6.54 6.54 6.54 6.54 6.55 6.55 6.56 6.56 6.57 6.57 6.57 6.56 6.55 6.54 6.52 6.50 6.48 6.46 6.43 6.41 6.38 6.35 6.33 6.31 6.30 6.29 6.28 6.29 6.29 6.30 6.30 6.31 6.31 6.32 6.32 6.32 6.31 6.30 6.29 6.28 6.27 6.25 6.24 6.22 6.21 6.21 6.20 6.20 6.20 6.20 6.21 6.21 6.22 6.24 6.25 6.26 6.26 6.27 6.28 6.29 6.30 6.31 6.32 6.33 6.34 6.35 6.36 6.37 6.38 6.38 6.38 6.38 6.37 6.36 6.35 6.33 6.31 6.29 6.27 6.24 6.22 6.20 6.19 6.17 6.15 6.13 6.12 6.10 6.08 6.06 6.05 6.03 6.02 6.00 5.99 5.97 5.96 5.94 5.92 5.90 5.87 5.85 5.82 5.79 5.76 5.74 5.73 5.73 5.75 5.77 5.80 5.84 5.88 5.92 5.95 5.98 6.01 6.02 6.03 6.03 6.01 5.99 5.97 5.94 5.91 5.89 5.87 5.85 5.83 5.81 5.79 5.78 5.77 5.76 5.76 5.75 5.75 5.74 5.73 5.71 5.69 5.66 5.63 5.59 5.56 5.53 5.51 5.50 5.50 5.51 5.53 5.55 5.59 5.62 5.65 5.68 5.70 5.70 5.70 5.69 5.67 5.65 5.63 5.61 5.58 5.56 5.54 5.51 5.49 5.46 5.43 5.40 5.37 5.34 5.32 5.29 5.27 5.26 5.25 5.25 5.26 5.27 5.28 5.30 5.32 5.34 5.36 5.39 5.41 5.43 5.45 5.46 5.47
10.00 10.00 10.00 10.00 10.00 10.00 10.00 10.00 10.00 10.00 10.00 10.00 10.00 10.00 10.00 10.00 10.00 10.00 10.00 10.00 10.00 10.00 10.00 10.00 10.00 10.00 10.00 10.00 10.00 10.00 10.00 10.00 10.00 10.00 10.00 10.00 9.95 9.88 9.83 9.80 9.78 9.78 9.80 9.82 9.83 9.85 9.85 9.84 9.82 9.79 9.76 9.73 9.70 9.67 9.63 9.58 9.52 9.46 9.39 9.33 9.26 9.20 9.14 9.07 9.00 8.93 8.87 8.81 8.77 8.74 8.73 8.73 8.76 8.81 8.87 8.93 9.01 9.08 9.14 9.19 9.23 9.24 9.22 9.18 9.12 9.05 8.96 8.87 8.78 8.70 8.63 8.56 8.51 8.48 8.45 8.43 8.42 8.41 8.39 8.37 8.34 8.30 8.25 8.21 8.16 8.11 8.07 8.03 8.00 7.96 7.93 7.91 7.88 7.86 7.85 7.84 7.84 7.84 7.85 7.88 7.90 7.94 7.98 8.03 8.07 8.11 8.14 8.15 8.15 8.13 8.10 8.06 8.02 7.97 7.93 7.89 7.86 7.84 7.82 7.80 7.79 7.77 7.75 7.72 7.68 7.63 7.59 7.54 7.49 7.45 7.42 7.39 7.38 7.38 7.38 7.40 7.42 7.44 7.46 7.49 7.51 7.53 7.55 7.57 7.58 7.59 7.61 7.63 7.65 7.68 7.71 7.73 7.76 7.78 7.78 7.78 7.75 7.71 7.65 7.58 7.50 7.41 7.33 7.24 7.16 7.09 7.02 6.97 6.92 6.88 6.84 6.82 6.80 6.79 6.79 6.79 6.79 6.80 6.80 6.81 6.82 6.83 6.85 6.86 6.88 6.89 6.91 6.92 6.92 6.91 6.90 6.88 6.85 6.82 6.78 6.74 6.70 6.66 6.63 6.60 6.57 6.55 6.54 6.52 6.51 6.50 6.49 6.49 6.48 6.47 6.47 6.47 6.47 6.47 6.47 6.48 6.49 6.49 6.49 6.50 6.50 6.50 6.49 6.48 6.47 6.45 6.43 6.41 6.39 6.37 6.34 6.32 6.29 6.27 6.25 6.23 6.22 6.21 6.20 6.20 6.20 6.21 6.21 6.21 6.21 6.21 6.21 6.21 6.20 6.20 6.19 6.18 6.17 6.16 6.15 6.14 6.14 6.14 6.14 6.13 6.14 6.14 6.14 6.15 6.16 6.17 6.18 6.18 6.19 6.20 6.21 6.22 6.23 6.24 6.25 6.26 6.26 6.27 6.27 6.27 6.27 6.27 6.27 6.26 6.25 6.24 6.23 6.21 6.20 6.18 6.16 6.14 6.12 6.11 6.09 6.07 6.05 6.03 6.01 5.99 5.97 5.96 5.94 5.93 5.91 5.90 5.88 5.86 5.85 5.83 5.81 5.79 5.76 5.74 5.71 5.68 5.66 5.65 5.65 5.65 5.67 5.70 5.74 5.78 5.82 5.86 5.89 5.92 5.94 5.96 5.96 5.95 5.93 5.90 5.88 5.85 5.83 5.81 5.78 5.76 5.74 5.72 5.71 5.69 5.68 5.67 5.67 5.66 5.65 5.63 5.61 5.59 5.56 5.53 5.50 5.47 5.45 5.43 5.42 5.42 5.43 5.46 5.48 5.52 5.55 5.57 5.59 5.61 5.61 5.61 5.59 5.58 5.56 5.54 5.52 5.50 5.48 5.46 5.44 5.41 5.39 5.36 5.33 5.30 5.27 5.24 5.22 5.20 5.18 5.17 5.18 5.18 5.20 5.21 5.23 5.25 5.28 5.30 5.33 5.35 5.37 5.39 5.40 5.41
